ply
            format ascii 1.0
            element vertex 74082
            property float x
            property float y
            property float z
            property uchar blue
            property uchar green
            property uchar red
            end_header
340.505634 -139.714978 2475.307505 23 46 54
342.131320 -135.763635 2475.516760 63 98 117
445.616662 197.156335 2502.240994 86 113 120
301.782412 -13.580723 2529.909450 121 173 186
380.249082 82.791560 2511.369681 104 133 137
301.349478 -13.846585 2530.301279 121 173 186
307.723508 3.185435 2531.650757 37 54 70
459.745789 -249.284484 2389.094308 80 110 121
464.066770 -251.438551 2386.887400 44 60 73
347.355916 -139.970485 2478.371416 23 52 66
314.191354 -84.949277 2510.038809 102 127 134
372.269308 69.756160 2518.866561 105 134 140
318.840878 -87.368126 2508.722607 43 50 58
318.840878 -87.368126 2508.722607 43 50 58
457.826055 185.026218 2501.730698 73 89 86
469.090686 -212.301552 2398.005824 58 83 88
446.589675 206.206443 2513.526360 37 44 52
325.073554 -93.076891 2505.411967 68 87 85
304.872555 -82.240739 2518.844002 30 39 44
304.519797 -132.146442 2507.105062 68 140 155
320.436088 -63.680796 2516.285405 29 60 63
320.436088 -63.680796 2516.285405 29 60 63
355.630843 -133.759610 2480.968588 13 36 52
474.130607 -233.395260 2393.842708 38 41 48
321.264361 -66.243021 2516.896822 85 119 121
464.149494 -248.427630 2395.792902 81 113 124
330.541223 -21.108692 2523.401383 26 41 46
315.628031 -83.423261 2516.048154 20 30 32
365.927474 -164.844342 2470.135368 124 181 188
468.132012 -212.725536 2403.572117 35 46 52
306.154277 -79.402485 2523.284102 133 178 183
323.258109 -59.496694 2519.756691 106 158 172
368.037939 -169.321616 2470.636241 121 180 188
458.319674 193.097838 2513.469462 76 112 124
463.674273 -213.374893 2410.148212 100 138 147
441.882241 -174.642315 2429.728729 255 255 255
401.492448 86.663693 2517.932666 117 137 135
401.492448 86.663693 2517.932666 117 137 135
363.231449 -138.671177 2486.402956 31 63 74
374.753943 -166.943159 2476.407794 128 176 190
332.731956 -16.263962 2535.905463 115 168 182
476.536119 -257.177586 2401.300888 132 182 193
474.163943 -248.881817 2406.188537 33 53 62
417.046599 89.728937 2521.157707 24 38 41
480.724704 -204.638770 2415.370464 25 58 63
355.551879 -25.785805 2526.175128 41 44 49
344.662768 -8.956640 2536.901203 104 161 172
416.536039 83.836903 2522.442266 32 40 43
416.536039 83.836903 2522.442266 32 40 43
420.646670 114.150182 2529.541610 28 42 53
420.646670 114.150182 2529.541610 28 42 53
388.740764 -171.422867 2476.263883 137 198 217
523.867140 -158.095764 2409.007536 76 49 56
425.293185 116.825940 2530.554566 35 44 53
340.084771 -118.451682 2516.613076 117 175 189
392.139759 -168.354944 2478.028091 38 64 81
524.503491 -153.314452 2413.997005 255 255 253
433.786934 130.237256 2532.115608 19 20 25
433.786934 130.237256 2532.115608 19 20 25
524.460480 -148.520867 2416.303186 71 44 61
395.763667 -170.148954 2478.569953 143 197 209
432.720372 100.276995 2527.494922 84 98 99
335.539676 -80.677390 2533.848978 132 190 202
374.220053 24.938666 2540.941044 110 182 194
452.215763 141.798610 2532.380399 124 155 160
532.844276 257.770473 2520.657542 57 75 85
359.070629 -65.780862 2529.772689 23 33 42
510.250475 -267.189148 2401.670757 49 97 109
511.891165 -261.338173 2401.585326 44 71 80
359.845020 -61.214962 2531.100431 28 36 39
403.545167 49.805943 2536.568619 111 133 131
439.752035 106.597660 2532.872782 25 32 38
440.701143 112.179661 2536.044035 112 145 150
498.291115 -251.937555 2415.534986 47 85 98
383.182613 22.995256 2544.364687 112 145 152
474.512538 -241.778542 2431.218117 57 96 103
486.641998 -225.591200 2429.258954 26 70 79
485.349195 -245.930351 2425.155046 80 129 143
463.020878 145.855544 2535.167557 46 59 67
484.226753 -212.127735 2437.092838 132 194 205
398.953063 -132.459287 2501.288939 15 41 54
383.218544 -24.221908 2536.588589 121 170 177
514.761975 -257.676097 2411.459247 240 255 255
494.026113 170.876661 2529.504085 14 40 53
399.597394 -128.285913 2504.582215 70 125 145
385.753781 -28.749849 2537.605797 5 19 28
374.862917 -17.208601 2546.915637 30 43 59
374.862917 -17.208601 2546.915637 30 43 59
515.436020 -252.708048 2416.268707 58 100 116
385.014681 -23.689445 2540.480726 80 138 140
385.014681 -23.689445 2540.480726 80 138 140
413.349743 43.257093 2542.972500 26 26 34
510.186371 -250.873753 2420.068572 143 197 199
510.186371 -250.873753 2420.068572 143 197 199
387.423476 -31.059284 2538.127794 119 137 137
405.542622 -128.661495 2504.536368 70 113 130
388.534513 -26.030616 2539.338138 101 153 151
453.667392 114.599137 2541.565613 95 137 149
499.218133 -234.352560 2431.190338 44 102 114
460.906877 105.973814 2536.862616 17 25 28
452.867806 109.617132 2541.987838 3 26 32
502.650431 173.314393 2535.924570 22 47 52
491.425650 -215.138152 2445.082874 26 71 74
372.408442 -118.627589 2529.851754 122 168 183
532.420038 227.649066 2536.654975 95 148 166
389.713159 -87.432840 2530.393648 101 135 147
383.867754 -1.214782 2555.740047 107 142 161
508.163209 169.075282 2538.205951 33 56 64
568.607563 269.017334 2533.280918 91 149 161
393.665226 -20.286476 2549.801677 90 150 161
467.808970 112.324900 2545.986370 109 137 140
467.808970 112.324900 2545.986370 109 137 140
390.287136 -1.080319 2558.152275 32 40 51
398.126452 10.304116 2558.198243 18 17 22
418.666139 -125.184538 2513.677753 62 92 103
498.569936 -208.194283 2452.592156 35 79 80
497.668321 -206.065676 2455.341069 82 132 139
497.668321 -206.065676 2455.341069 82 132 139
393.076764 -112.474018 2533.938055 26 28 40
503.432421 146.666893 2548.466437 39 48 55
399.231598 -84.592507 2542.291554 16 34 46
451.603863 50.532873 2551.840753 26 30 33
503.587750 -203.739019 2463.738083 20 67 77
503.587750 -203.739019 2463.738083 20 67 77
503.587750 -203.739019 2463.738083 20 67 77
391.892690 -86.070205 2549.237458 124 164 176
527.943829 175.334205 2550.887227 52 66 75
399.752311 -79.594669 2550.868634 26 25 30
513.312159 -225.224640 2457.699094 136 196 206
505.097117 -188.558124 2471.049019 121 175 187
505.097117 -188.558124 2471.049019 121 175 187
508.513602 -209.752252 2464.643412 118 170 181
508.513602 -209.752252 2464.643412 118 170 181
453.576743 58.586635 2560.614630 110 142 139
460.439238 -145.486403 2505.680123 121 178 185
461.117143 67.551002 2560.399009 129 170 166
532.018291 165.493097 2555.322233 23 69 82
541.157584 -207.556626 2466.381751 65 121 134
520.958801 -187.280448 2481.971503 26 76 87
524.264697 -198.667683 2479.153473 133 182 196
524.264697 -198.667683 2479.153473 133 182 196
522.845611 -189.964250 2482.867465 102 159 170
526.467004 -205.227587 2479.961287 63 106 122
439.088247 -123.135370 2544.683816 160 202 218
460.122701 -125.145726 2534.032781 41 58 68
437.192411 -79.456989 2559.184975 17 16 21
571.925784 186.499702 2562.613440 22 61 68
571.925784 186.499702 2562.613440 22 61 68
432.323742 -90.058109 2561.307741 122 144 157
488.201632 -138.514099 2523.338854 123 190 198
581.934519 182.315770 2567.887690 89 123 132
585.282132 185.955606 2567.923976 11 44 51
535.909764 -150.416351 2505.532959 82 110 122
543.039103 -174.700627 2499.351457 67 108 112
468.217271 -5.524032 2584.940227 70 111 115
567.546760 -208.354501 2488.712864 161 206 209
469.131016 -101.844475 2563.272202 20 25 29
578.741058 -208.681135 2485.123442 87 145 149
573.443720 164.336859 2584.827075 30 47 54
571.551355 160.005282 2586.210053 89 110 115
-1459.993084 -689.541561 3305.829621 10 14 17
483.503868 -121.016479 2556.977545 28 73 94
579.612893 164.795421 2586.654302 21 38 46
511.059243 -127.071994 2545.874170 103 170 186
486.643957 -106.541591 2565.695955 105 151 166
591.163902 169.649568 2589.134163 19 36 43
514.875142 52.215104 2595.052428 32 45 51
489.853554 -113.010834 2567.882285 110 167 184
497.736789 -103.336875 2566.969232 83 121 134
474.303055 -42.253281 2594.701010 82 96 99
563.898004 -154.080237 2524.104504 31 79 79
452.241685 -64.163178 2600.493413 53 62 67
548.814051 116.775974 2603.006171 122 195 204
551.208046 121.041120 2604.417428 89 159 169
551.423958 110.987628 2602.547358 120 192 204
551.423958 110.987628 2602.547358 120 192 204
457.619629 -64.291783 2601.823150 132 161 165
569.789186 145.113166 2606.230899 125 176 193
496.377923 -9.088850 2602.158503 105 163 164
554.210279 131.604289 2612.855121 114 168 180
563.916288 117.858974 2606.130230 64 88 98
502.160677 -11.450736 2601.011691 61 85 89
462.271767 -10.171428 2623.286404 103 176 182
486.467113 -8.851128 2612.160230 110 175 181
472.388067 -3.406301 2622.365730 140 208 217
531.494963 57.513368 2616.274447 105 179 192
538.865776 55.390405 2612.540440 91 156 174
517.374130 -10.947082 2605.598331 49 73 77
480.555293 -87.376976 2603.515160 74 111 117
527.867920 -98.459564 2583.217041 107 144 150
530.055157 -16.284279 2602.090232 112 167 161
530.055157 -16.284279 2602.090232 112 167 161
524.519343 -8.264305 2609.736436 106 158 154
541.681362 -112.544338 2574.934819 60 92 103
539.718507 -110.467882 2582.763631 104 166 179
504.900196 -83.947412 2605.710132 104 134 136
539.031305 -10.654107 2611.750032 65 82 89
651.269783 152.192173 2605.444857 25 28 33
595.673426 -128.425910 2556.639133 72 85 91
521.996758 4.504618 2626.245321 149 208 214
657.763214 155.939401 2608.203770 99 171 183
519.607347 -87.494983 2607.204659 96 148 146
559.690526 -102.952512 2586.784382 21 48 57
551.176339 -36.608226 2609.187701 90 129 126
580.739327 52.095841 2620.052856 5 32 41
615.186932 -138.191573 2555.058063 116 160 171
618.873461 89.203479 2616.113273 76 94 106
563.826288 -98.589383 2590.930002 20 45 52
565.194750 -101.302678 2590.941416 94 126 137
571.711265 -108.768148 2586.825145 31 29 34
540.758563 -97.287723 2605.048269 140 210 212
567.124495 -16.533928 2615.318520 138 172 171
590.750811 58.792052 2625.139360 130 188 200
607.245393 -117.585677 2572.371845 23 26 31
607.245393 -117.585677 2572.371845 23 26 31
621.279803 -130.010910 2564.083281 97 129 142
617.424976 -121.626790 2570.327884 97 130 135
582.085997 -100.177437 2592.734493 73 92 99
589.887104 -109.324421 2587.307532 139 209 211
558.274347 -98.553201 2605.076276 160 215 218
627.910878 -137.401942 2564.870292 20 48 51
590.153979 -110.218981 2589.425332 131 190 194
671.069169 -144.531718 2545.220533 47 67 78
672.255189 121.182053 2615.276397 109 167 181
587.753320 -1.478756 2619.940664 44 49 52
618.471082 -125.862489 2575.996394 131 193 190
618.471082 -125.862489 2575.996394 131 193 190
586.987226 0.375510 2623.508373 39 50 54
594.452021 -103.097955 2593.468510 39 53 62
621.962892 -113.608980 2579.191590 99 108 115
611.881819 33.170064 2623.367515 36 53 60
589.398107 -59.973729 2608.426069 117 131 140
650.024357 -141.746717 2560.610916 152 195 201
624.830471 40.467306 2621.222534 133 186 192
587.365946 -41.296101 2615.864133 125 142 150
624.233426 -125.897043 2577.401607 27 30 45
589.771976 -26.992541 2619.178698 114 160 158
580.048161 -92.172564 2609.833215 42 42 50
657.772623 -147.003370 2562.084825 87 159 155
593.241527 -80.141061 2608.234481 35 35 43
680.001919 -148.344118 2554.191175 36 46 48
633.095269 49.048948 2627.582517 148 204 203
640.104124 42.990782 2623.466960 52 83 86
640.220901 -130.395354 2578.155881 8 25 33
676.849128 -25.086895 2608.211127 113 122 127
629.401208 -118.331877 2607.172005 118 192 191
679.796122 -8.497684 2616.370971 18 22 31
682.310928 -4.552325 2618.000078 124 155 158
674.548926 -67.675463 2604.609373 18 33 40
727.954930 47.088320 2612.828388 90 164 175
676.786849 -51.333363 2608.543125 55 70 77
681.842183 -101.264500 2593.472168 46 84 93
680.722535 51.294136 2636.403569 95 158 163
688.633292 -25.204832 2612.946751 16 27 33
690.840397 -1.894061 2619.610604 26 27 32
684.256983 -47.540529 2611.072465 111 155 158
688.487574 -35.922334 2613.341412 116 167 168
687.668920 -72.551240 2604.683789 115 146 148
702.822277 -20.804939 2614.208817 41 44 49
710.156072 -48.973386 2603.974038 63 124 127
695.338390 -37.456102 2613.301016 120 159 154
705.812802 -11.659952 2616.478840 26 24 29
808.417018 -52.217957 2566.778965 237 255 255
712.476092 -42.982714 2610.197105 12 30 34
769.969970 56.627159 2615.644521 255 255 255
714.713841 -99.183841 2593.541502 255 255 255
714.713841 -99.183841 2593.541502 255 255 255
723.312845 -42.409618 2608.688641 132 166 165
755.645172 -40.898245 2601.057686 27 32 38
738.452884 -41.628072 2610.207446 17 18 22
790.654819 -45.475136 2588.446298 49 59 61
815.700912 -68.746034 2574.277437 85 84 102
763.605616 -80.834868 2607.392857 80 120 130
835.578697 73.049043 2625.472920 18 26 39
826.681123 -5.769965 2606.243547 20 20 22
758.787810 -72.232892 2615.645669 69 110 116
758.787810 -72.232892 2615.645669 69 110 116
765.556001 -84.568449 2615.826799 76 113 119
822.886754 65.981678 2638.544006 19 23 34
752.809430 -70.843315 2630.527620 31 36 40
796.337751 43.428289 2652.455752 75 85 95
-1500.322037 -704.694690 3328.018076 46 43 38
784.878157 43.593052 2659.869680 91 101 113
724.516710 -29.515629 2665.214111 60 74 74
799.246715 -103.528524 2615.893719 139 178 195
734.341643 -0.005216 2673.331295 28 49 52
859.497955 -93.192911 2604.528531 228 255 255
800.097494 -78.357970 2635.632487 102 116 117
782.917406 -88.877392 2641.007465 22 30 33
865.691739 -98.769401 2606.789973 255 250 255
716.558364 -140.337330 2667.081864 18 24 24
831.438134 -147.712032 2623.138066 70 34 72
839.075982 -133.606088 2625.520101 255 254 255
839.075982 -133.606088 2625.520101 255 254 255
828.890413 -140.866948 2628.691731 66 46 71
839.782850 -161.499650 2619.746686 81 102 123
828.622451 -149.238433 2627.879463 82 101 115
722.601883 -149.134838 2670.008995 39 68 72
731.913117 -121.890565 2675.196945 121 177 192
844.181187 -162.487878 2622.756028 59 111 125
725.081544 -149.929039 2672.062940 42 83 89
732.515022 -129.340072 2678.055478 129 188 202
833.671968 -153.153022 2634.643573 21 40 57
851.658538 -72.215814 2651.088230 116 131 126
842.019001 -146.442566 2639.064935 116 183 200
837.637775 -34.202643 2673.187033 47 90 107
846.522004 -148.794969 2640.275675 131 190 208
860.065831 -23.176306 2670.349912 63 127 139
844.507773 -45.190690 2675.308403 78 113 109
744.684754 -151.122455 2685.642292 48 111 129
-779.617281 -103.113760 2047.631735 124 123 118
-774.472996 -63.908683 2045.309588 173 175 172
-784.294647 276.978868 2078.983426 164 166 165
-800.738951 -199.906493 2085.024572 103 122 103
-147.462166 -78.848455 1006.746462 114 86 75
-763.088758 147.368414 2041.322000 122 123 125
-807.064861 -172.547784 2101.723428 46 53 45
-597.039732 -363.739613 1740.688503 114 86 75
-796.247878 -147.561465 2087.558907 75 104 100
-773.316658 225.514419 2070.631252 119 116 111
-773.316658 225.514419 2070.631252 119 116 111
-659.087901 557.631578 1886.022264 125 105 116
-567.270163 -225.282170 1707.438528 179 185 185
-672.985771 482.661449 1909.577044 130 112 124
-761.121462 -205.794071 2030.282687 191 201 210
-778.162649 243.937011 2085.657657 163 154 149
-772.960084 229.846397 2076.499430 174 174 176
-773.252932 234.399518 2077.329448 121 120 116
-780.965130 -214.474550 2065.499777 179 191 181
-784.089265 -208.232719 2072.698629 146 165 145
-783.296312 -210.679039 2071.393112 20 28 13
277.593529 124.607604 338.733819 34 30 31
-799.866469 -171.763164 2103.049003 138 178 188
-571.779197 -209.830189 1726.107402 147 149 148
-424.241046 -292.602895 1468.139580 39 40 44
-799.090911 -174.657679 2101.750171 25 50 47
-771.009969 226.681318 2078.390160 78 75 68
-772.226188 -215.852890 2058.896623 202 207 211
-159.448720 -135.694969 1046.091422 34 30 31
-785.268334 -208.672515 2080.687405 85 74 46
-422.681860 -293.042065 1472.197169 34 30 31
-747.192539 160.272310 2043.796939 130 136 132
-766.805167 228.911104 2079.878349 167 167 167
-780.276663 -207.965492 2080.846631 74 70 45
-780.127134 -152.662290 2083.822312 91 105 105
-754.440804 -23.258503 2051.501853 146 168 166
-768.436255 247.728300 2092.361064 119 116 109
-786.392886 -198.310158 2095.550174 158 187 183
-786.392886 -198.310158 2095.550174 158 187 183
-790.976226 -183.355043 2103.082661 138 156 158
-752.579065 12.196823 2052.842796 160 164 163
-775.253006 -212.079873 2076.660664 56 49 30
-415.669243 -294.372016 1478.003206 60 60 60
-760.060990 222.268965 2080.637064 180 180 180
-560.376036 -376.133748 1702.872555 34 30 31
-551.858630 -223.510323 1717.837829 142 152 151
-779.871297 -205.747970 2089.558454 152 160 147
-558.304626 -212.456105 1731.692475 197 199 198
-758.895280 231.958511 2086.169574 109 106 101
-555.250719 -211.051137 1732.820936 143 148 144
-1392.010921 -766.086809 3106.974596 51 43 40
-745.353452 220.098221 2072.520044 136 134 135
-779.552861 -153.796799 2105.812966 135 157 155
-771.567731 -137.133901 2095.084810 158 160 157
-763.763283 -219.022835 2079.590561 85 87 66
-361.458079 1000.603914 1500.691915 133 120 137
-770.280579 -205.380793 2092.251299 188 191 164
-770.280579 -205.380793 2092.251299 188 191 164
-770.280579 -205.380793 2092.251299 188 191 164
-550.060762 -198.955365 1741.279404 140 144 143
-550.060762 -198.955365 1741.279404 140 144 143
-547.883730 -206.275605 1737.382250 116 122 122
-773.021663 -198.198005 2098.299398 105 110 90
-128.435802 -105.288913 1059.532875 117 134 152
-770.259752 -203.808344 2094.763903 101 100 72
-96.769400 -38.471441 1022.554525 137 135 136
-769.101988 -196.162604 2100.370495 167 176 171
-560.708925 -335.433970 1748.619894 137 135 136
-732.201598 209.018787 2072.425789 127 126 121
-546.415541 -196.914969 1749.699034 133 135 134
-744.195342 241.803546 2095.067532 181 176 170
-569.932866 -362.449370 1764.071131 136 144 146
-770.876062 -155.353903 2111.882081 134 159 156
-804.028430 -491.079141 2129.490807 137 135 136
-744.649849 244.602964 2099.993708 168 165 160
-725.598786 216.300569 2070.659691 176 176 174
-705.302074 -448.694082 1978.978411 26 33 39
-725.181604 216.879354 2070.090101 176 176 174
-725.181604 216.879354 2070.090101 176 176 174
-762.724667 -144.561003 2105.186617 109 114 110
-739.662718 237.043607 2096.806924 82 78 75
-737.002125 238.834365 2097.205140 171 165 165
-716.649349 122.383363 2056.863659 55 88 93
-720.952574 33.686738 2058.383119 134 144 145
-758.993841 -147.336421 2106.902278 109 124 121
-531.707031 -194.405798 1756.726203 135 137 134
-1177.285027 -609.057059 2735.723703 102 108 98
-525.817545 -202.362244 1750.765680 143 148 144
-763.274158 -173.110714 2124.566718 167 186 184
-764.055155 -170.233774 2127.340559 154 175 176
-523.263053 -199.749120 1751.603815 138 140 137
-529.570537 -186.191629 1764.615495 140 140 138
-529.570537 -186.191629 1764.615495 140 140 138
-723.825203 240.173976 2103.471175 182 182 180
-715.389648 219.915059 2088.985313 97 98 93
-715.389648 219.915059 2088.985313 97 98 93
-759.501717 -169.860562 2128.795058 167 187 188
-723.146551 243.568203 2105.659231 180 179 177
-718.350053 240.173276 2103.013687 179 179 179
-738.764042 -149.028993 2117.925550 162 176 179
-696.328212 45.810860 2070.693369 176 184 186
-713.404269 -121.932146 2096.680251 168 167 165
-497.667057 -195.910796 1764.330605 155 156 158
-497.667057 -195.910796 1764.330605 155 156 158
-737.109343 -162.926472 2132.117362 109 133 135
-716.824074 -208.258291 2098.067365 111 106 74
-716.382151 -206.237465 2098.198337 155 155 127
-697.688777 -98.068383 2084.851493 142 143 145
-523.486958 -160.589618 1826.288815 161 165 168
-706.247748 -203.378504 2099.599958 184 190 186
-686.140666 231.494020 2109.646614 99 100 95
-666.760884 224.770844 2114.136965 123 122 118
-687.371917 -195.833821 2103.339422 133 128 125
-686.998072 -196.980581 2103.158619 172 171 169
-652.080959 241.382397 2106.125096 171 170 168
-660.689725 -190.620759 2104.884080 153 149 148
-653.428201 -93.577621 2106.012596 116 121 127
-630.997826 -28.379133 2105.871939 147 185 194
-643.425179 -184.392528 2107.548953 189 188 186
-609.323901 247.149545 2121.462759 58 67 72
-414.403914 -191.835420 1803.005492 196 196 198
-604.484270 243.831462 2124.810911 40 23 16
-565.691539 -150.813218 2028.582043 118 113 107
-404.405635 -192.541214 1802.595939 142 171 169
-397.743201 -191.551654 1795.049343 59 78 74
-609.467090 2.439363 2115.090284 87 130 139
-595.628764 243.032750 2132.293606 91 78 72
-626.024381 -164.090656 2127.359751 147 148 143
-586.599637 240.410140 2137.811819 152 133 126
-590.571435 230.887538 2142.381394 70 60 51
-609.826433 -179.357059 2117.255552 146 141 137
-583.713413 249.945914 2137.165683 49 49 51
-622.325227 -141.761042 2147.920845 212 211 216
-576.223457 240.895304 2146.223998 102 97 91
-579.180331 231.095358 2147.715695 48 39 32
-607.557193 -163.962782 2134.226263 54 56 53
-360.036782 -188.534375 1802.205022 125 128 133
-603.504134 -163.198269 2132.459960 182 184 173
-573.433132 251.272476 2151.270000 144 135 130
-568.370676 257.910737 2151.835171 67 92 97
-572.123491 236.969449 2155.824011 145 136 131
-569.521906 235.253000 2153.824565 148 133 126
-595.762698 -155.045914 2143.719143 62 51 47
-587.257305 -165.421742 2138.134966 52 56 55
-593.077889 -151.544627 2149.755400 71 59 47
-574.432365 -172.416772 2128.412262 165 158 150
-574.432365 -172.416772 2128.412262 165 158 150
-585.027186 -166.373398 2143.045842 35 55 54
-585.832842 -132.580457 2165.016455 191 190 188
-498.290847 -150.907280 2050.269868 161 162 167
-541.957135 245.696628 2165.694845 177 179 178
-580.581557 -147.481149 2161.717610 174 166 163
-583.005105 -131.818456 2167.071467 192 192 192
-512.092316 -151.032713 2074.048565 149 151 146
-538.229676 246.423557 2164.357096 57 53 50
-535.047784 232.944964 2158.356463 67 58 51
-575.605879 -168.714010 2154.123973 166 187 190
-535.654259 256.552047 2164.060589 247 255 255
-534.371015 240.060617 2162.627653 131 115 102
-531.329117 257.083379 2162.617936 52 61 66
-568.028796 -171.891171 2148.367704 191 192 194
-534.743808 241.939774 2168.211155 197 177 166
-526.965732 237.591437 2160.920839 165 145 138
-526.331578 238.324865 2160.262367 165 145 138
-566.646885 -128.381253 2171.123335 112 108 107
-307.761438 -180.399367 1839.179390 153 173 172
-565.795920 -146.918605 2169.986565 171 168 163
-544.344820 -171.106714 2140.713828 168 167 162
-356.164076 -160.079271 1907.092754 117 148 150
-314.080917 -182.464281 1851.884771 67 86 84
-304.615442 -180.699900 1842.253209 160 190 190
-554.713581 -137.000164 2168.772728 157 149 146
-559.529696 -161.403994 2175.973733 146 174 175
-552.866013 -173.822299 2168.621927 191 202 204
-548.419057 -136.516073 2171.174189 167 161 149
-553.651728 -160.697977 2179.230078 19 49 49
-281.071140 -178.576743 1841.973156 150 167 174
-540.933716 -136.175869 2174.868541 168 160 147
-282.229307 -179.002918 1850.735236 155 196 202
-282.229307 -179.002918 1850.735236 155 196 202
-278.793218 -180.511315 1848.396898 53 88 90
-542.712342 -152.682759 2179.686012 177 171 171
-495.515129 222.049107 2183.751305 174 169 165
-281.465537 -180.039235 1861.592809 90 105 102
-281.465537 -180.039235 1861.592809 90 105 102
-518.121564 -167.300212 2152.418347 124 127 118
-302.433019 -171.294885 1893.292298 150 162 160
-533.973406 -170.791476 2176.159996 67 86 80
-528.860099 -129.338973 2187.762061 189 189 189
-472.312217 236.954008 2181.031786 48 32 19
-477.342636 235.850951 2187.412334 145 128 118
-927.070845 -520.352233 2649.071833 68 134 130
-528.356388 -159.577405 2186.401178 40 60 59
-1472.091369 -848.251454 3231.144287 65 44 53
-475.205942 218.527782 2192.908903 138 135 126
-271.868763 -178.512842 1887.821943 194 199 203
-519.316146 -128.448850 2192.805484 188 188 190
-513.381639 -132.134182 2189.306249 157 145 131
-515.019352 -150.912136 2190.815815 172 168 165
-255.301136 -182.008432 1878.565982 28 38 37
-243.512395 -183.039695 1865.507481 127 147 146
-489.248498 -170.621040 2163.116975 131 141 140
-244.043865 -181.544574 1871.765625 171 180 179
-453.571198 249.673746 2191.995541 148 144 141
-455.749102 241.399979 2194.585106 163 162 160
-506.860514 -133.020006 2194.326977 173 161 149
-451.470661 238.571136 2194.175846 53 44 37
-495.415325 -105.446628 2189.280670 176 190 193
-498.946577 -166.472455 2188.862162 70 90 88
-501.427575 -163.122184 2192.779062 158 173 176
-498.619083 -132.933508 2197.132320 161 152 145
-481.594340 -163.525351 2184.995420 182 182 180
-474.995028 -101.972015 2196.587848 61 117 118
-488.212321 -128.861188 2208.420445 170 160 148
-358.136046 -153.326095 2058.002882 111 160 164
-455.843228 312.549937 2251.568401 250 251 253
-415.832502 252.992243 2203.716709 238 251 255
-477.210933 -159.572239 2203.267495 132 134 131
-253.980051 -162.772844 1948.767710 63 145 143
-204.311305 -191.365109 1887.435661 44 95 99
-230.688571 -173.738089 1922.578233 168 187 193
-475.533530 -150.432338 2205.707412 174 170 167
-255.957018 -157.741373 1955.956885 119 187 190
-475.465286 -131.031830 2211.950964 168 159 152
-252.357716 -160.604848 1955.147566 134 205 211
-219.460998 -179.411541 1915.608404 165 184 190
-423.277295 216.615535 2219.719050 90 87 78
-469.452482 -150.275538 2208.544796 176 172 171
-455.992513 -162.590976 2191.343916 192 191 189
-194.538166 -202.149309 1890.496428 169 179 178
-417.778858 215.887447 2219.528191 171 162 157
-217.247764 -173.522571 1924.960460 171 190 188
-462.496222 -138.865110 2208.715349 170 163 155
-406.526803 258.789469 2218.553065 243 246 251
-218.289085 -172.105910 1932.417735 61 120 118
-455.947814 -109.282811 2211.642916 29 128 125
-182.822090 -206.329582 1892.873759 181 184 189
-402.894175 250.413943 2221.370950 88 81 73
-284.389712 -156.921903 2017.650321 75 134 138
-284.389712 -156.921903 2017.650321 75 134 138
-269.411911 -161.572513 2002.391428 59 127 126
-269.411911 -161.572513 2002.391428 59 127 126
-184.128808 -202.838394 1899.264058 101 125 125
-452.451105 -137.904687 2212.719215 39 26 20
-208.810003 -171.412150 1935.387319 63 123 121
-403.240563 230.530751 2225.778365 190 180 171
-402.984236 230.666690 2225.730159 190 180 171
-452.570081 -134.488503 2216.297660 55 46 37
-398.589902 186.555724 2216.289631 185 185 183
-181.962950 -199.488006 1907.059541 53 92 97
-436.181149 -162.136510 2196.203400 111 108 103
-445.505479 -114.587549 2216.229013 172 180 182
-185.841614 -190.922606 1915.432228 51 73 71
-177.324392 -193.539731 1907.544772 42 91 87
-448.704029 -148.751405 2216.424515 180 173 167
-178.617620 -203.795369 1908.001464 151 175 177
-172.955063 -203.864113 1902.410632 175 180 183
-446.338571 -135.401983 2217.838666 161 150 146
-177.332858 -195.875936 1910.811144 115 153 154
-180.276358 -192.675034 1915.096374 130 169 164
-442.084596 -137.245404 2218.672387 115 104 98
-157.346256 -209.900198 1897.203950 111 146 150
-194.444075 -175.882182 1945.958430 17 83 82
-385.271594 242.899321 2233.210823 63 49 40
-314.747287 -149.645076 2082.886001 139 198 206
-435.685308 -142.261983 2217.785528 185 176 171
-421.203169 -163.978143 2198.643946 118 105 99
-383.372046 154.163658 2217.096690 47 77 75
-160.546287 -206.432095 1906.268347 120 136 135
-236.990749 -165.464623 1999.219603 110 185 188
-387.058415 131.715488 2218.956357 90 158 169
-418.290464 -169.400501 2197.027833 110 106 107
-438.819870 -129.804032 2227.922618 169 160 153
-417.817677 -167.307460 2198.346264 169 169 167
-417.437759 -162.446591 2199.689812 171 163 160
-386.746367 115.615100 2219.322656 101 169 180
-433.608809 -133.938949 2225.780622 76 63 57
-433.608809 -133.938949 2225.780622 76 63 57
-384.151606 242.629871 2242.436789 151 144 136
-424.418890 -173.684742 2208.976095 122 116 116
-423.485527 -160.949886 2211.888073 169 164 161
-432.871409 -155.763025 2222.818252 173 173 173
-241.307894 -168.434370 2013.894099 56 121 123
-429.544973 -156.203309 2221.378561 95 101 101
-427.447588 -136.220862 2224.307626 37 29 27
-383.421968 224.664639 2245.304194 146 137 132
-316.454168 -157.879776 2100.661626 58 115 109
-159.193192 -210.864590 1921.138655 137 157 158
-422.818064 -110.972182 2226.308519 71 168 177
-416.740919 -160.207738 2211.070279 98 95 90
-412.765923 -163.191419 2206.323689 189 184 181
-375.076245 163.798501 2227.900986 179 181 178
-125.121578 -208.266348 1887.369977 254 255 255
-374.931598 132.435994 2222.447880 41 73 68
-248.465751 -166.379516 2031.001992 44 112 121
-379.307079 221.786855 2245.818709 71 64 56
-426.284792 -154.298618 2226.029536 158 157 155
-426.284792 -154.298618 2226.029536 158 157 155
-422.938640 -135.482438 2227.267730 64 55 50
-424.638190 -140.126357 2228.396167 62 55 49
-258.007365 -163.073144 2044.647394 106 190 190
-187.459821 -186.972032 1964.525724 75 138 147
-405.688914 -167.349917 2203.972383 168 164 163
-313.008910 -158.657359 2107.435600 135 193 195
-380.155364 230.014404 2253.968292 16 14 15
-255.908501 -166.747339 2044.827412 47 122 128
-255.908501 -166.747339 2044.827412 47 122 128
-168.854676 -204.136469 1944.526635 113 157 158
-372.549309 225.753647 2246.518062 72 64 51
-372.222943 258.678312 2252.445475 67 63 60
-166.229884 -205.405567 1944.149468 24 59 63
-414.735741 -158.434299 2220.061513 128 156 159
-378.158156 81.998782 2226.688829 6 65 63
-382.674887 11.115580 2218.987879 55 151 167
-357.879909 -155.488972 2161.072144 0 75 74
-158.538769 -205.687523 1938.026790 121 170 167
-222.617822 -175.618297 2012.812725 19 81 80
-362.094130 189.362684 2233.394893 126 122 121
-323.285443 -158.217897 2127.751280 139 202 207
-366.120099 218.214268 2246.206246 109 104 100
-374.687476 229.058715 2257.606020 134 126 115
-268.309059 -166.794501 2068.016012 43 117 120
-268.309059 -166.794501 2068.016012 43 117 120
-418.932999 -165.338781 2230.015485 61 70 65
-397.449110 -170.155508 2207.232713 77 72 76
-229.743354 -175.042967 2026.999562 10 68 70
-368.983956 225.114102 2253.484002 66 63 58
-368.983956 225.114102 2253.484002 66 63 58
-417.526883 -150.330124 2233.220553 121 113 102
-251.623329 -167.533158 2053.020106 95 169 180
-358.741694 184.553070 2235.805183 152 164 162
-413.444950 -140.247363 2233.030355 46 37 32
-413.444950 -140.247363 2233.030355 46 37 32
-359.627258 176.759638 2236.501231 154 175 180
-410.080650 -117.087213 2234.959249 42 113 107
-363.453087 219.656169 2251.336407 161 163 160
-408.345224 -114.243018 2234.759327 57 134 128
-393.777838 -170.255877 2208.548794 74 70 71
-350.258625 -156.634624 2167.545987 24 90 88
-356.937041 175.315405 2239.232797 153 183 183
-128.486876 -201.996034 1923.606849 84 148 148
-277.913003 -164.646163 2089.927914 32 110 110
-127.134694 -201.502484 1922.828459 84 148 148
-269.264763 -166.161960 2081.689679 100 171 175
-408.048883 -134.127208 2236.320875 128 123 120
-389.441521 -169.968102 2209.618017 107 102 106
-363.335764 227.133256 2259.312361 152 150 151
-386.407277 -65.028862 2226.911978 0 67 74
-386.407277 -65.028862 2226.911978 0 67 74
-413.159778 -156.623837 2240.314088 121 136 141
-390.209063 -164.038933 2215.556515 193 192 188
-406.713475 -139.103632 2238.734798 177 163 150
-199.615378 -117.377426 2021.640152 32 110 110
-200.582648 -198.657767 2015.353089 119 171 167
-200.582648 -198.657767 2015.353089 119 171 167
-347.797807 199.022820 2249.061430 154 151 146
-291.034543 -161.616195 2120.574141 42 110 109
-291.034543 -161.616195 2120.574141 42 110 109
-406.909817 -161.939625 2242.681774 67 107 107
6.466570 -35.495449 1818.464163 87 157 157
-200.813943 -199.102024 2020.748566 40 76 74
-200.813943 -199.102024 2020.748566 40 76 74
-400.811322 -132.779787 2243.689002 119 112 106
-362.595005 55.217598 2243.104034 53 137 148
-398.573376 -134.612692 2243.798561 40 37 32
-398.573376 -134.612692 2243.798561 40 37 32
-349.419585 267.246963 2273.450289 147 148 150
-346.364565 275.995861 2272.972236 65 101 125
-358.733967 244.687134 2279.957175 146 137 128
-345.547560 166.663381 2252.383063 17 61 60
-354.357942 239.110917 2276.132303 70 61 54
-354.357942 239.110917 2276.132303 70 61 54
-69.691230 -229.206842 1887.481748 240 255 255
-347.714905 126.222096 2250.270227 70 131 126
-341.815826 155.981399 2252.476201 73 118 111
-394.764742 -158.320751 2246.760130 138 142 141
-274.060375 -170.518744 2119.287775 5 63 64
-341.743736 128.999504 2253.349540 82 124 120
-107.255453 -227.031319 1941.785704 143 152 123
-341.465547 267.910887 2283.507871 89 87 88
-379.430272 -176.057326 2234.726130 185 186 181
-89.937640 -227.185275 1925.957450 135 145 136
-338.464312 258.162382 2280.969058 26 22 21
-344.708955 207.804844 2277.390733 130 132 129
-340.496265 269.405219 2285.792007 148 147 145
-375.753665 -176.362909 2234.908293 48 63 60
-340.013389 206.657384 2275.470341 157 159 158
-338.671472 195.218641 2272.708824 29 45 42
-335.175391 258.258021 2282.461649 184 184 184
-360.132441 -40.971310 2248.488642 78 145 151
-390.277936 -150.113039 2257.887900 29 22 16
-343.380808 121.192929 2265.205097 34 59 53
-306.984624 -165.089945 2170.665098 116 184 187
-386.142949 -135.839481 2259.261029 128 118 108
-384.355633 -175.979708 2249.850206 91 106 103
-86.062938 -228.953909 1933.301613 104 103 83
-389.621160 -151.457007 2260.813665 125 117 106
-387.580760 -151.971003 2259.435512 102 95 85
-179.829769 -197.568132 2038.342973 62 112 111
-389.455382 -163.178881 2259.892073 115 125 124
-358.160036 -90.334419 2243.472569 55 132 148
-386.089554 -138.966098 2262.404461 61 54 48
-337.621766 203.008726 2283.040304 28 29 24
-329.666185 256.983902 2286.133505 175 173 174
-87.653893 -195.286618 1946.217191 34 44 36
-334.132656 193.078971 2279.134410 38 54 53
-333.498523 215.515191 2283.525971 148 148 148
-372.870657 -184.090760 2244.319625 140 144 143
-364.626824 -188.268998 2239.344974 138 163 170
-333.987136 209.216531 2287.301835 13 17 16
-330.649840 229.000500 2288.081205 166 172 172
-386.216046 -139.158836 2272.972192 51 48 41
-358.837627 -188.090821 2236.983740 8 66 68
-364.911457 -186.814429 2244.077696 104 106 105
-327.545168 202.429518 2287.046209 91 119 122
-332.191296 162.788699 2284.246808 105 161 162
-311.469484 276.487869 2287.122637 68 106 115
-387.659123 -156.294383 2278.543886 16 8 5
-332.183739 143.168442 2284.835779 121 173 171
-341.518709 -33.257158 2258.185226 63 120 114
-160.170985 -219.225277 2037.651341 35 35 27
-389.725289 -149.802320 2283.558921 96 88 77
-112.898403 -227.320684 1988.898053 43 32 12
-163.052839 -218.674418 2043.190524 36 38 33
-328.195735 156.111616 2289.042303 103 167 166
-123.094808 -226.585260 2004.393204 115 99 83
-254.798907 -24.312798 2182.906344 13 58 61
-364.259393 -185.190239 2257.930339 152 158 158
-377.519652 -170.313467 2275.418376 89 124 128
-303.635212 269.356267 2293.063327 104 133 131
-350.876155 -92.790862 2265.092968 8 57 61
-350.876155 -92.790862 2265.092968 8 57 61
-140.683978 -222.788073 2030.129083 120 114 92
-328.293163 -190.449660 2226.166946 67 149 147
-177.592184 -223.407909 2067.845068 109 118 101
-378.852689 -142.943710 2286.905156 166 157 152
-186.083827 -203.198259 2083.173908 60 89 85
-372.483659 -137.761370 2284.284382 78 72 60
-83.851999 -241.523062 1976.239558 254 254 244
-356.260334 -188.258672 2262.996962 103 142 147
-362.836462 -127.014771 2282.048840 16 45 41
-354.205089 -190.997132 2262.036835 56 84 87
-305.537133 202.789061 2296.681460 79 123 126
-321.641077 -186.573096 2233.319889 120 186 182
-299.065078 288.596101 2312.117981 37 41 40
-329.961381 60.349068 2297.291601 57 124 133
-366.316187 -171.279028 2284.296646 28 74 72
-135.906832 -229.509770 2044.820090 113 144 147
-367.953849 -162.189511 2288.483952 36 32 29
-135.804739 -231.137710 2045.496028 114 136 133
-220.203612 -194.667783 2136.409718 56 115 109
-737.645729 -443.177413 2633.817257 34 22 10
-737.645729 -443.177413 2633.817257 34 22 10
-346.960684 -188.209530 2265.023921 105 155 164
-364.018822 -158.171492 2287.866499 41 40 38
-364.303776 -177.291414 2284.521597 74 145 149
-331.733055 29.689354 2296.770015 75 155 166
-298.473530 280.818048 2317.940760 51 43 40
-359.945418 -183.190291 2280.045972 51 100 107
-320.541358 -191.351255 2239.625961 7 35 39
-233.139422 -189.624612 2155.144751 56 117 110
-120.262992 -237.358110 2035.020780 48 49 43
-149.740105 -219.601114 2067.748305 109 109 99
-364.429947 -156.852138 2292.503191 46 46 44
-309.730198 -191.955613 2231.355265 12 51 48
-361.403863 -163.363360 2292.386251 118 140 138
-356.926742 -178.940503 2286.946137 80 142 141
-356.442279 -181.191712 2286.712004 48 92 91
-348.591710 -137.985072 2288.340172 117 116 112
-353.555102 -146.055059 2293.446983 23 24 19
-312.439978 -192.867682 2244.366663 4 34 36
-300.466153 300.497902 2339.250165 229 235 249
-655.955549 -232.521964 2561.508877 88 165 175
-207.855721 -217.633514 2138.808693 124 137 111
-346.218356 -186.962018 2280.431409 97 141 140
-286.297755 295.741304 2326.963002 131 141 143
-303.096677 136.605430 2310.022061 6 27 22
-301.949272 139.894160 2310.058857 30 49 45
-342.561757 -111.572367 2296.103003 22 42 40
-287.178194 266.523020 2327.242541 133 148 153
-349.465185 -166.984663 2296.596811 60 96 94
-352.527496 -175.256809 2298.158371 35 83 85
-327.684533 -188.754469 2274.581732 108 136 137
-285.813312 267.898879 2333.128098 152 158 156
-340.910123 -191.395907 2287.718666 90 132 131
-221.785437 -214.391617 2169.044535 128 131 112
-345.194955 -136.648355 2305.519122 121 182 185
-285.425550 249.587469 2333.444388 134 136 135
-343.693795 -148.150792 2303.550164 80 153 159
-280.649848 314.408331 2346.333192 238 247 255
-337.643702 -155.070713 2298.651871 90 130 130
-337.518201 -148.877023 2301.720599 0 27 29
-342.800115 -168.029292 2302.891508 25 37 35
-302.914274 124.004813 2328.892332 120 132 118
-302.746438 115.242368 2329.124339 124 146 133
-345.386053 -192.582255 2303.005156 35 61 58
-344.297240 -182.436228 2305.015198 37 56 54
-288.818913 176.820073 2330.884839 115 128 121
-289.214382 176.308474 2331.380706 115 128 121
-344.063470 -182.422996 2305.069690 37 56 54
-341.467391 -165.710122 2306.631371 92 142 141
-239.447881 -212.501876 2200.858676 25 23 11
-304.918556 -18.716090 2306.192165 2 23 26
-288.311132 188.808504 2337.482933 138 143 136
-343.209397 -188.761781 2308.060129 90 135 141
-251.101132 215.244850 2312.165487 23 24 18
-337.144087 -182.772103 2306.065523 63 106 112
-288.900911 179.964438 2340.730732 23 24 18
-274.502096 -190.509873 2249.798510 69 108 103
-21.371986 -175.590917 2008.489561 137 108 76
-215.430756 -218.884316 2192.045184 97 87 75
-297.019953 66.531662 2332.866961 92 116 94
-307.343123 21.219816 2332.828237 23 26 19
-104.421118 242.724719 2198.586249 39 26 9
-16.055620 447.242534 2168.060637 99 104 97
-201.840958 -224.938771 2185.886032 114 108 82
-288.456456 101.818211 2340.517363 103 100 81
-304.905787 -21.654847 2330.116005 32 37 31
-298.378529 -26.736442 2324.524414 21 25 24
-251.036295 -212.790950 2240.009426 108 97 67
-276.088386 201.686245 2358.768922 99 104 97
-157.298480 -3.048875 2196.407097 28 93 97
-305.161012 -184.936202 2302.423249 71 105 107
-241.078733 -212.856130 2237.930841 113 107 83
-289.031970 50.309706 2342.519580 77 74 57
-445.086607 -227.100892 2423.211345 67 104 97
-277.048283 154.345915 2358.241425 158 166 155
-276.757372 147.293802 2360.833724 104 99 77
-276.637228 129.098538 2358.421459 138 146 131
-279.789499 121.924883 2360.781793 126 133 117
-292.476589 -22.319436 2340.923134 93 104 90
-292.476589 -22.319436 2340.923134 93 104 90
-304.026840 -97.701618 2335.136602 26 26 16
-270.332955 -211.283174 2279.065662 135 121 82
-289.414523 -12.742468 2345.074741 72 68 57
-289.414523 -12.742468 2345.074741 72 68 57
-306.516660 -110.333413 2339.571508 117 115 94
-194.086821 248.949405 2321.826752 241 245 255
-287.877105 -34.516995 2345.124025 100 90 65
-310.781596 -162.985117 2342.394811 30 35 28
-294.584167 -207.940759 2321.637343 109 113 96
-302.201057 -205.605030 2333.391876 27 23 12
-281.675042 -21.543504 2365.177295 38 29 22
-280.438356 -13.030756 2366.156955 116 110 94
-300.819856 -185.721723 2344.576160 118 131 113
-277.867356 -31.699666 2360.814065 40 31 24
-67.829275 -169.277265 2145.489743 170 166 128
-204.468709 97.675385 2330.517330 73 106 95
-289.041226 -146.072478 2349.701577 104 102 89
-289.041226 -146.072478 2349.701577 104 102 89
-291.932502 -173.736017 2346.361889 105 113 102
-290.715491 -155.966284 2351.284658 105 102 95
-296.974226 -207.072793 2346.589689 196 202 198
-61.890066 -168.852478 2146.924819 174 156 116
-206.849659 61.265790 2333.802899 103 121 105
-215.394982 11.002530 2333.320470 103 113 104
-291.191217 -208.868363 2348.642633 37 21 8
-211.833378 8.335744 2333.330728 147 168 151
-48.775685 -163.559413 2152.258106 96 87 78
-207.915642 -15.149381 2336.679576 91 118 103
-281.715853 -146.735137 2371.609428 138 128 116
-95.432193 -166.883902 2206.884716 185 183 145
-140.318285 205.395672 2339.402247 106 164 166
-827.337003 -469.668877 2762.745814 26 22 13
-206.398021 -80.731182 2335.082360 168 170 157
-203.811140 -83.398925 2334.120368 153 152 131
-280.906865 -221.895107 2372.565514 58 50 31
-211.287192 -113.497369 2339.077475 163 143 108
-183.113783 -15.718717 2340.053069 155 165 128
-171.801910 31.083726 2343.229715 96 107 73
-200.926275 -97.937568 2337.784182 146 143 108
-193.126708 -74.538995 2338.431126 162 173 157
-79.367292 -164.246549 2222.632537 254 255 255
-67.502536 -157.865045 2214.356623 254 255 255
-145.578003 92.554485 2343.271531 111 106 100
-145.578003 92.554485 2343.271531 111 106 100
-185.922269 -64.307606 2341.980859 106 103 70
-62.274027 -163.507641 2215.673158 26 37 43
-194.609608 -118.793862 2339.492093 153 158 135
-93.397850 -158.985954 2248.222249 69 61 59
-59.612430 -168.446991 2217.945952 63 74 76
-73.103072 -162.495287 2232.172258 34 33 28
-165.499529 -162.265709 2312.873320 149 125 81
-191.252570 -121.611989 2345.126874 156 160 143
-56.807684 -168.556966 2226.834091 130 187 194
-62.366345 -157.401037 2238.308358 31 27 15
-69.005968 -151.081202 2258.084149 22 23 25
129.526408 198.312985 2190.065174 255 255 255
-96.620568 -152.712599 2281.056711 199 164 132
-156.631117 -135.791448 2338.368233 76 57 42
-168.244640 -109.976663 2355.398449 134 131 96
-163.031124 -107.682742 2352.343845 134 130 95
130.427703 175.651238 2182.585509 100 136 148
127.806262 168.144417 2183.161968 120 141 146
134.926287 165.065892 2183.454561 20 29 38
136.082453 152.067409 2183.963318 85 113 117
141.907693 173.782615 2186.098777 24 43 57
139.121460 164.267901 2188.336962 31 34 41
-113.133147 -128.129628 2330.548028 118 133 138
149.327557 137.706158 2186.978426 74 95 96
154.367599 158.120153 2195.486686 12 23 29
154.367599 158.120153 2195.486686 12 23 29
-64.531337 -153.484329 2294.111097 133 91 69
-106.072137 -140.488053 2332.604908 95 112 120
-44.879640 -174.420561 2274.887041 77 92 95
-106.004082 -146.531166 2333.011260 42 43 45
158.829314 151.335756 2197.775586 92 114 111
-105.294461 -138.455507 2336.582224 101 126 130
-101.360736 -151.699997 2334.692275 103 104 99
-52.641345 -153.217083 2298.271912 97 75 61
171.054589 128.214755 2195.535967 14 19 23
178.564918 172.550573 2203.402511 89 118 126
167.379788 141.349375 2212.309855 16 24 26
-28.453315 -30.378535 2323.401199 48 73 77
-87.827902 -142.649211 2342.192728 91 146 149
-87.827902 -142.649211 2342.192728 91 146 149
183.708668 159.090621 2211.137820 36 41 45
-22.043951 -33.463241 2323.596335 94 124 122
181.111677 153.171964 2212.640324 67 81 81
-27.634691 -40.354001 2329.170497 6 7 11
-68.054235 -98.306898 2347.922190 28 63 69
216.637953 172.773925 2210.461929 104 131 142
-34.028057 -201.668410 2310.565604 72 72 80
-31.024281 -204.447183 2310.788266 245 254 255
-62.462105 -144.050657 2351.836893 102 159 168
-6.120448 -31.689794 2339.595303 114 130 130
-41.945170 -182.070862 2333.153803 8 12 11
-40.953473 -79.144328 2360.023264 107 138 133
-29.850002 -204.790069 2318.475119 16 44 56
-32.618654 -186.892768 2334.373078 12 12 14
-37.299287 -193.057730 2337.365028 150 187 193
-32.755964 -194.335641 2337.670164 48 85 93
248.578847 159.048984 2218.421021 53 60 68
-13.680057 -207.723306 2321.053837 54 78 88
-33.149998 -98.612874 2365.290630 98 158 158
-42.563433 -136.034466 2362.646324 28 78 89
-42.563433 -136.034466 2362.646324 28 78 89
-30.907170 -113.961015 2361.559715 6 36 36
-26.859422 -190.889575 2339.457383 130 177 185
-26.859422 -190.889575 2339.457383 130 177 185
-33.515192 -109.477131 2366.980712 95 149 161
-27.880135 -185.659268 2342.847521 43 53 52
-12.031209 -167.026727 2337.416558 113 123 124
-1141.488322 -683.567014 3089.411644 83 147 159
-27.292582 -109.343088 2369.397303 96 145 152
-9.416267 -210.337303 2329.749362 239 255 255
-18.759099 -95.424430 2370.710472 72 104 101
-26.917025 -123.731567 2369.803851 85 149 159
-26.917025 -123.731567 2369.803851 85 149 159
-9.362750 -192.135770 2338.807310 96 114 116
35.748439 -24.646679 2350.488302 4 8 9
162.158734 172.651691 2312.280429 33 33 43
33.885280 -35.907725 2351.901103 19 19 21
-18.090847 -107.907711 2374.233708 85 148 157
-18.090847 -107.907711 2374.233708 85 148 157
284.245595 165.691964 2226.001456 254 255 253
-23.296382 -138.862713 2372.249495 112 174 187
170.852817 153.565407 2312.494177 20 24 27
170.852817 153.565407 2312.494177 20 24 27
-3.550181 -80.387023 2379.450219 53 61 64
-6.415192 -100.462758 2376.530855 117 143 140
-11.601348 -118.511627 2377.322186 5 23 25
294.110510 164.100462 2229.585367 24 24 26
5.022836 -178.346035 2350.343759 17 22 26
5.128433 -203.629224 2344.059828 153 196 203
163.097962 171.967538 2329.919414 251 255 255
19.232101 -202.310850 2334.506222 255 254 253
-7.084774 -105.556223 2380.462999 41 56 61
1.952277 -189.738809 2352.693949 12 15 20
-6.907950 -120.409885 2379.343305 25 35 44
2.742257 -194.794043 2352.867778 128 186 187
56.346447 -27.224747 2359.186644 81 104 94
5.159447 -187.097221 2354.453011 48 97 101
5.159447 -187.097221 2354.453011 48 97 101
13.158347 -207.841394 2343.276871 23 28 32
63.347286 -13.391711 2361.603896 123 134 130
7.615702 -181.441450 2356.901535 111 175 187
50.727654 -40.367120 2365.013770 100 119 123
9.032687 -80.329254 2385.142761 61 66 72
8.798723 -195.198047 2353.976682 16 41 45
-5.353373 -131.183781 2381.797857 110 163 169
9.720883 -184.145280 2357.149167 130 187 204
-809.219515 -461.544901 2919.894066 42 46 47
14.037464 -189.563690 2356.049307 125 173 175
-2.036986 -134.700373 2382.980344 43 44 49
177.168906 162.014138 2334.410219 16 16 18
64.542255 -37.772559 2362.852372 9 19 20
-1.327081 -148.556253 2380.824456 47 49 48
283.838630 157.115980 2259.205978 35 36 38
15.831824 -198.343895 2356.108192 42 75 92
168.196320 128.807125 2335.915760 43 42 47
16.630748 -193.405727 2358.381933 12 42 50
19.422933 -185.857103 2359.360868 13 33 44
12.908352 -105.901323 2387.644729 30 48 48
13.342818 -109.061674 2387.741967 117 157 156
5.309013 -135.244559 2386.682428 39 39 47
14.296941 -118.105906 2385.617616 113 167 167
65.803034 -35.445301 2371.855615 36 37 23
65.803034 -35.445301 2371.855615 36 37 23
-325.253973 -151.969926 2610.314007 30 30 38
-268.840592 -123.353121 2602.107130 255 255 253
14.148903 -115.124137 2389.973256 21 35 35
-866.569049 -549.083894 2901.708852 255 255 255
-238.299181 -314.445715 2484.850202 245 255 255
24.054527 -87.536520 2392.550193 114 156 155
23.562748 -92.011097 2392.580435 36 42 42
76.615377 -32.528087 2371.058491 33 32 4
50.424012 -202.726144 2343.637332 16 30 33
50.191237 -207.772871 2342.766545 36 44 55
332.518189 178.012766 2247.013923 20 21 23
29.976180 -84.050231 2393.949800 14 26 26
36.873757 -172.635582 2365.362668 21 22 26
54.851446 -206.346537 2344.539189 245 255 255
17.709356 -130.347901 2392.476191 18 28 30
16.914897 -142.373107 2393.152744 132 168 158
193.889210 179.154963 2356.524490 249 255 255
56.017394 -203.646811 2349.243887 31 49 63
194.840600 175.742910 2357.150871 16 24 35
37.166183 -199.612596 2365.450209 142 195 199
38.649193 -192.660123 2366.528291 66 120 130
28.690512 -143.457560 2387.358857 46 46 46
22.231471 -135.593435 2394.642988 10 37 46
27.323652 -121.478370 2397.032801 0 24 31
55.308533 -194.039784 2358.020030 11 15 14
320.279172 161.438061 2270.768037 24 29 33
71.215334 -194.256020 2349.147635 18 56 69
315.197027 177.892704 2284.273427 37 28 33
31.116434 -119.533321 2398.710289 121 152 146
58.522686 -196.190685 2357.855415 87 99 99
52.408283 -174.404061 2369.797193 4 18 18
285.923383 142.406624 2295.126719 254 252 253
285.923383 142.406624 2295.126719 254 252 253
54.899367 -168.982775 2371.377458 23 28 31
55.826458 -177.620084 2370.761900 4 10 10
-1458.878512 -798.718021 3214.754082 63 61 46
