ply
            format ascii 1.0
            element vertex 89201
            property float x
            property float y
            property float z
            property uchar blue
            property uchar green
            property uchar red
            end_header
307.046363 164.685050 2467.557883 95 128 137
326.140079 197.713722 2428.501998 105 125 116
335.403983 90.599063 2503.431690 29 34 37
386.129452 239.500970 2347.946403 31 40 47
328.018518 193.214261 2431.228825 16 20 23
336.179990 208.553374 2414.171567 71 79 81
311.849479 160.605126 2471.404971 50 66 82
314.978441 172.512641 2460.159479 117 156 173
346.403365 77.519580 2508.305969 33 46 55
346.813812 74.561613 2511.773428 23 39 52
344.359994 84.881232 2506.057174 101 141 141
313.966563 161.668527 2473.411659 128 168 178
334.671475 193.285426 2434.261214 20 24 27
352.842377 80.862448 2508.403641 63 78 81
375.987598 39.637087 2523.790141 24 29 32
319.623724 162.792865 2473.804727 49 67 81
376.198203 2.006172 2552.472530 27 43 59
381.058522 4.804571 2550.720746 82 138 153
360.503116 70.988797 2517.561876 32 59 70
360.503116 70.988797 2517.561876 32 59 70
382.276938 2.428714 2554.149714 30 56 73
327.575557 167.991744 2472.503924 19 38 53
338.576289 197.250486 2442.083430 110 151 143
367.035569 66.867162 2520.918790 115 158 174
403.700525 241.684181 2355.710214 21 20 25
386.663988 14.470565 2552.922133 42 45 50
336.665156 166.607653 2475.824806 46 74 85
396.331008 258.181270 2357.804945 65 104 119
354.532091 212.685275 2427.424005 87 120 125
354.726355 179.380637 2454.080271 78 91 97
372.141934 91.898502 2508.703962 43 44 46
396.075493 37.071914 2536.093523 97 125 129
396.075493 37.071914 2536.093523 97 125 129
351.588528 198.099482 2447.395239 20 20 22
343.460042 166.277510 2479.004450 36 54 66
447.072325 -87.016659 2593.448832 87 61 74
447.072325 -87.016659 2593.448832 87 61 74
387.915207 73.987218 2516.665618 47 54 60
423.639890 233.958425 2363.643544 95 104 103
399.538932 34.244958 2539.634022 98 122 132
397.804069 32.380526 2542.676727 20 29 38
390.156889 76.931819 2517.806892 111 145 147
384.702647 91.310517 2513.397601 114 148 147
432.553476 231.742310 2367.223931 102 108 106
356.460770 163.028873 2482.072328 19 48 62
397.452967 75.957643 2519.527326 43 50 58
392.697088 228.973482 2405.522997 25 29 32
392.697088 228.973482 2405.522997 25 29 32
392.977672 225.787276 2407.148939 105 116 118
392.977672 225.787276 2407.148939 105 116 118
406.264244 30.923252 2549.119288 99 132 147
418.280355 4.032005 2563.677402 55 64 69
393.059976 205.808749 2426.996511 14 15 17
403.585106 76.366964 2522.197668 104 144 152
406.832419 79.902482 2521.182832 43 52 57
417.989250 31.862314 2550.878181 68 81 90
457.455876 226.162163 2375.214747 86 86 86
412.399926 94.502415 2517.675573 37 40 49
414.466005 85.647048 2523.547575 33 38 42
394.437125 220.852576 2436.363726 48 58 57
394.437125 220.852576 2436.363726 48 58 57
396.103918 217.864215 2439.958912 22 21 26
405.246483 196.371534 2450.068217 8 16 18
428.281423 49.531297 2547.851316 102 126 128
428.281423 49.531297 2547.851316 102 126 128
463.120923 -39.824583 2591.090050 45 48 55
392.679136 219.842892 2441.738107 22 21 26
459.385516 -23.915219 2585.001921 113 163 164
434.856897 43.019113 2553.618442 24 33 42
392.464212 173.874848 2485.346992 81 109 113
428.626656 85.763305 2527.554329 92 110 110
465.055368 243.389251 2375.605672 30 32 31
394.529330 219.786519 2451.868317 62 67 70
393.031357 222.758213 2450.950828 12 17 21
437.394254 50.864516 2552.700016 29 28 33
442.574271 41.471978 2556.204624 69 90 91
445.780502 40.556702 2556.588690 99 115 114
470.940970 249.644602 2373.368930 85 132 142
432.417237 95.899212 2525.516469 34 37 42
474.090371 239.213826 2379.009539 43 79 95
493.333447 -45.979555 2595.535505 105 130 135
396.147038 225.802942 2456.838667 72 103 106
485.865216 242.952212 2376.113704 48 83 85
454.596642 52.266666 2561.387750 104 133 131
454.596642 52.266666 2561.387750 104 133 131
503.894704 235.655096 2381.487938 64 98 133
402.858101 230.997382 2464.305484 13 12 17
416.766242 156.876646 2514.814850 30 44 55
401.414151 224.112344 2472.984630 87 87 85
401.410541 231.947101 2469.969188 110 139 135
403.559292 228.202198 2471.836882 86 101 108
440.399570 248.056254 2428.813848 73 94 95
458.596586 68.566006 2560.039535 133 162 166
421.898076 243.310783 2448.746255 24 38 41
419.721540 241.920187 2455.851481 30 48 52
418.079500 240.782862 2458.414525 127 149 147
432.867782 247.939710 2443.326540 25 42 49
410.944902 230.937087 2474.580317 79 89 101
408.950288 229.947956 2480.570683 22 25 32
454.201666 115.057834 2541.890439 109 156 164
446.205465 166.443028 2510.871769 81 91 100
453.054171 242.741210 2445.353038 25 48 56
460.134117 252.099446 2434.494668 83 111 115
485.342990 62.431824 2567.736691 21 26 30
485.342990 62.431824 2567.736691 21 26 30
478.301845 82.386874 2562.074811 58 73 78
460.388504 224.664550 2463.424530 30 59 67
463.966033 255.944240 2437.569419 24 33 38
460.508101 247.400051 2446.973229 52 80 81
456.215990 251.900851 2447.121997 79 107 110
489.740685 41.130738 2592.715341 6 14 16
470.118692 124.799406 2542.191397 80 94 103
470.118692 124.799406 2542.191397 80 94 103
463.958257 141.163961 2537.238590 124 174 185
491.345172 35.733815 2601.958977 65 112 120
491.406163 35.362997 2607.048394 92 122 133
499.150670 41.354996 2596.758620 125 173 173
496.419880 38.963376 2600.320248 29 33 42
496.419880 38.963376 2600.320248 29 33 42
463.669455 226.228126 2473.317002 64 115 132
503.256054 45.751154 2594.556596 29 42 48
503.256054 45.751154 2594.556596 29 42 48
480.538505 124.217544 2549.574409 106 143 151
501.808193 34.003205 2607.153077 30 33 40
504.340395 52.933093 2591.205761 102 150 164
467.068171 259.935316 2452.243562 89 107 109
476.287331 212.587479 2486.265219 29 36 44
508.563987 36.087100 2607.044418 71 127 144
508.563987 36.087100 2607.044418 71 127 144
500.424730 33.359850 2618.997683 105 168 185
510.342291 55.799696 2593.765414 37 40 49
510.342291 55.799696 2593.765414 37 40 49
481.619404 223.304591 2482.208109 82 132 143
518.168362 41.797615 2603.073553 34 35 39
488.814935 160.687687 2532.506816 20 23 32
481.118663 230.932211 2478.724971 75 118 127
524.767550 49.181948 2598.510320 89 137 147
488.599749 207.042864 2496.181909 63 81 91
477.787390 241.862607 2478.413351 36 54 58
497.580341 266.252309 2445.635354 78 110 121
491.244298 216.794935 2492.986823 78 129 148
491.244298 216.794935 2492.986823 78 129 148
474.749304 190.812825 2526.154324 96 130 140
469.963534 199.205310 2529.303610 47 62 67
492.522868 224.927397 2494.571048 77 123 139
499.086321 217.713890 2497.137485 95 144 161
507.180463 201.600252 2507.041241 34 53 59
512.458214 177.000124 2542.168625 19 44 51
520.984907 82.855784 2616.994504 89 152 159
513.779590 180.374751 2542.412313 104 152 164
529.310223 148.908625 2558.637862 59 72 78
530.144266 95.946494 2604.284754 96 154 165
538.960086 147.885965 2562.659932 71 75 84
515.726028 202.378920 2540.089439 30 43 52
508.434235 202.145736 2547.592818 118 164 180
502.521372 271.104117 2498.007533 34 70 82
531.379098 278.650456 2472.279734 66 118 132
513.211295 265.892909 2507.139853 72 125 141
524.539842 204.124872 2550.289881 90 157 174
573.066901 79.434835 2620.637622 58 104 119
550.662814 177.263265 2556.753107 89 141 155
509.367643 271.404463 2507.743570 89 145 162
528.154796 200.365413 2554.356695 44 89 108
533.682583 238.961785 2522.447299 51 88 104
591.161923 73.990995 2620.046700 66 112 127
642.312654 28.076223 2629.576019 49 60 62
594.884024 81.610554 2620.264604 101 171 183
649.822070 27.545697 2636.315765 0 33 45
574.914719 172.748622 2572.350474 80 101 106
572.188478 184.406003 2564.984394 112 164 175
568.881229 141.590005 2606.700255 74 143 159
579.174437 150.454594 2596.601698 53 122 127
577.832209 185.963292 2568.279634 81 128 136
534.061276 274.805677 2524.695124 76 133 153
579.181591 160.315562 2588.986443 108 149 155
579.878345 224.675156 2535.005443 91 150 168
586.010659 150.297061 2595.684100 94 165 169
575.018187 144.616236 2609.773920 100 162 177
581.082788 171.265933 2585.738931 112 151 158
578.718026 180.351628 2583.223229 68 97 103
556.229893 289.845833 2508.222733 103 146 153
667.721492 46.844473 2636.129269 13 61 75
547.332656 266.685042 2534.591624 106 169 186
593.560680 140.812567 2610.537228 108 175 184
590.302543 171.433096 2587.199742 27 30 39
593.750158 164.124987 2591.107095 79 119 119
594.601283 180.239399 2578.050256 9 30 31
585.782386 187.416194 2586.329630 37 46 51
595.129696 159.741776 2606.218657 16 41 46
618.077676 137.297792 2610.501383 55 118 133
559.467299 282.134130 2529.414570 48 94 107
596.495128 203.536967 2573.635026 23 62 77
592.488836 196.391204 2587.687654 71 101 112
592.488836 196.391204 2587.687654 71 101 112
612.619650 168.201787 2605.065921 134 191 200
613.680415 211.720218 2570.735564 111 173 188
620.124878 204.086269 2577.230319 89 147 149
578.270218 288.896437 2536.753358 92 155 164
576.659291 281.085604 2544.394705 115 175 183
622.116928 211.738067 2572.777338 111 177 189
585.246628 284.318429 2544.162935 99 143 156
592.254276 283.590751 2542.553782 91 135 146
592.254276 283.590751 2542.553782 91 135 146
590.103220 287.609466 2541.396264 122 177 180
639.186483 201.648022 2582.654070 61 109 119
600.160362 294.226880 2533.653081 52 99 115
-740.649537 -38.631255 2051.145972 84 110 107
-544.535572 255.134452 1723.486708 105 97 94
-541.446425 260.856306 1718.783547 102 98 95
-556.920263 230.485335 1751.262141 135 134 132
-734.331886 -134.998796 2096.904291 164 164 156
-543.883437 247.220605 1733.266685 110 106 105
-543.883437 247.220605 1733.266685 110 106 105
-728.398595 -132.215667 2091.915612 67 56 50
-540.723064 252.344326 1729.412012 110 106 105
-737.214673 -142.831274 2108.537578 52 58 54
-729.198368 -135.123494 2095.458157 168 161 153
-727.610124 -128.954432 2093.274549 166 155 149
-734.889686 -142.473040 2107.861623 159 149 140
-727.799123 -122.879975 2092.364508 174 161 155
-738.511939 -149.207386 2117.175471 140 171 173
-731.648571 -138.852665 2104.775372 143 143 141
-731.115353 -143.154408 2110.008750 53 49 40
-727.922816 -140.836620 2108.771463 42 38 27
-724.860727 -135.075457 2103.443903 48 33 26
-721.039235 -133.802540 2104.371307 156 153 148
-717.880216 121.010908 2057.520283 156 181 185
-727.870657 -151.910958 2120.174775 36 42 38
-724.235957 -142.540696 2113.776054 165 161 160
-717.015188 122.796998 2057.569001 46 75 81
-726.239349 -150.374720 2119.370464 163 183 182
-716.821206 -133.603255 2102.671578 60 57 52
-724.325637 -151.231844 2120.721920 49 72 66
-703.313128 -99.778291 2080.429705 129 131 130
-722.577046 -150.447544 2120.010742 70 79 74
-718.223221 -139.688112 2112.440283 156 151 148
-718.813465 -142.651258 2113.595142 105 107 104
-720.451293 -148.496088 2119.077209 173 175 172
-718.638256 -150.799583 2116.683806 173 175 172
-718.638256 -150.799583 2116.683806 173 175 172
-705.790816 28.872125 2065.942491 45 65 74
-514.152452 265.310626 1723.854182 149 147 150
-705.259945 31.779132 2065.464082 173 177 180
-518.734707 254.418659 1736.361852 116 115 113
-715.894132 -144.500236 2117.536382 99 112 105
-705.085052 -120.294346 2097.066953 158 156 157
-705.218839 -125.779354 2098.893958 56 55 51
-705.218839 -125.779354 2098.893958 56 55 51
-717.116514 -148.453418 2121.994621 43 43 41
-717.116514 -148.453418 2121.994621 43 43 41
-700.995035 27.705556 2067.604305 192 193 198
-696.941709 -99.319476 2083.847467 126 130 129
-700.413301 22.947894 2068.330301 53 58 62
-700.413301 22.947894 2068.330301 53 58 62
-703.987085 -125.797667 2100.139313 183 168 161
-713.900574 -146.841944 2121.283903 167 173 171
-530.976145 233.061224 1768.048731 136 135 133
-695.931306 -108.710191 2089.507247 133 131 132
-708.075292 -142.170736 2119.255436 169 171 170
-709.928586 -145.551735 2123.030177 128 137 132
-701.481028 -130.991154 2108.881159 66 65 63
-701.481028 -130.991154 2108.881159 66 65 63
-695.824902 45.697323 2069.739632 168 178 177
-702.932126 -134.185830 2113.841444 161 160 156
-698.363421 -127.566787 2106.417684 75 70 66
-694.246308 43.443906 2070.866512 89 98 103
-694.320043 -123.777161 2104.630630 63 46 39
-694.320043 -123.777161 2104.630630 63 46 39
-690.403869 -122.605953 2104.142302 169 165 164
-690.403869 -122.605953 2104.142302 169 165 164
-699.077505 -149.105509 2127.293455 163 167 170
-699.077505 -149.105509 2127.293455 163 167 170
-694.705779 -132.512401 2118.257802 168 158 156
-692.124002 -132.480361 2114.617634 85 80 77
-696.724111 -142.705398 2124.063987 130 132 127
-696.724111 -142.705398 2124.063987 130 132 127
-682.424561 -117.709191 2102.470027 158 162 165
-683.941851 -128.511350 2114.275079 91 87 84
-681.966643 -125.788785 2113.073539 148 144 141
-670.810235 -101.027416 2097.435564 176 177 179
-678.561851 -125.949958 2114.326404 66 53 47
-675.909914 -123.388807 2111.335557 160 158 159
-669.525511 -109.137842 2102.722725 170 171 175
-674.002438 -127.148254 2118.851826 127 127 119
-666.205879 -109.008448 2105.235966 174 178 181
-669.869742 -127.018638 2118.123943 168 168 170
-672.890696 -134.386333 2127.661242 157 156 154
-669.885866 -132.695430 2125.786265 69 65 62
-669.885866 -132.695430 2125.786265 69 65 62
-659.277096 -104.980780 2105.783253 132 135 140
-668.258649 -135.016982 2127.405664 177 163 160
-665.581292 -132.458665 2126.172569 166 164 165
-660.119523 -135.307855 2131.486578 167 166 164
-556.421121 225.589235 1913.535812 185 185 193
-556.421121 225.589235 1913.535812 185 185 193
-560.955356 225.883231 1919.948928 139 137 142
-641.473250 -68.773365 2102.904919 179 187 190
-546.075087 224.888702 1900.248936 137 140 149
-633.525017 -75.455672 2109.350718 111 122 118
-628.682642 -123.767285 2132.149508 130 130 130
-627.838624 5.236485 2104.315318 127 174 182
-625.914612 10.452098 2105.111129 164 179 186
-660.669639 258.949080 2105.767261 184 184 184
-660.669639 258.949080 2105.767261 184 184 184
-623.518294 118.505778 2102.319799 29 72 89
-398.101341 241.761529 1757.924716 254 255 255
-618.549790 109.767967 2104.912285 156 189 194
-641.117656 256.269973 2106.623877 120 105 98
-637.225300 252.919596 2110.900312 175 176 171
-587.023583 -130.366375 2159.933196 84 76 73
-577.302674 -99.241698 2141.433633 104 116 116
-611.187072 265.470947 2099.358802 166 157 152
-573.163454 -67.713363 2134.441346 67 107 107
-571.544271 -69.154368 2136.037585 158 183 187
-616.256064 246.430602 2118.599370 99 82 72
-612.474305 248.615494 2117.849676 165 155 153
-612.474305 248.615494 2117.849676 165 155 153
-618.420574 229.336573 2136.620205 131 125 125
-606.609966 248.661758 2116.366846 68 59 54
-570.997707 -129.149379 2163.712973 157 150 144
-563.678505 -69.748366 2139.423997 165 178 184
-606.756806 241.073991 2122.984834 165 151 148
-606.021253 247.171681 2120.440386 107 84 70
-606.021253 247.171681 2120.440386 107 84 70
-562.232019 -99.017615 2148.899545 95 117 115
-562.232019 -99.017615 2148.899545 95 117 115
-604.871178 244.899297 2124.839592 31 22 17
-601.101952 253.502217 2119.613065 34 28 28
-343.452461 238.592912 1772.968940 251 255 255
-603.856856 245.897810 2128.128443 191 158 143
-592.227595 254.207202 2114.857579 172 163 158
-596.075568 238.103727 2131.226782 164 160 157
-594.823317 243.511285 2128.165589 52 39 33
-547.632870 -99.109026 2155.722917 85 115 115
-547.632870 -99.109026 2155.722917 85 115 115
-599.808927 227.800002 2140.559240 121 116 113
-591.172955 241.086401 2132.788756 46 26 19
-590.525635 243.283896 2133.228877 141 128 120
-584.191499 254.675464 2126.037557 28 21 15
-587.973626 239.845938 2137.025932 125 107 97
-589.540236 251.031160 2137.554791 145 138 132
-587.832877 242.174168 2140.275702 133 123 114
-537.793379 -153.901429 2180.906691 91 80 74
-578.464250 255.910363 2131.403875 29 18 16
-584.972915 239.587260 2146.589383 79 64 57
-580.009228 253.725978 2137.128998 149 135 134
-580.009228 253.725978 2137.128998 149 135 134
-578.057448 247.050349 2136.441441 94 75 68
-584.513587 238.614884 2148.534132 168 157 153
-582.313246 249.411904 2142.993420 150 128 115
-527.163527 -100.266728 2166.909054 148 187 192
-582.589154 242.253588 2146.267596 29 21 18
-577.094292 256.691522 2136.022851 36 19 11
-579.798104 251.832596 2141.140562 24 16 13
-580.467234 246.875826 2144.358999 31 26 23
-573.462956 260.356163 2133.191834 58 49 40
-582.348380 240.821268 2150.670115 89 78 72
-574.542021 258.611863 2135.353116 135 120 113
-530.888375 -9.223234 2151.878112 89 145 158
-530.888375 -9.223234 2151.878112 89 145 158
-525.723316 -73.955392 2161.412486 87 129 127
-571.267784 262.132498 2133.229807 140 131 124
-576.894824 255.095810 2142.714082 130 115 108
-578.234117 248.892027 2146.400918 31 26 23
-580.443520 242.127114 2151.643179 144 133 127
-569.678716 262.724242 2134.569311 75 65 56
-576.493101 231.343645 2151.481918 110 103 97
-574.832114 253.619856 2145.404893 26 22 21
-574.832114 253.619856 2145.404893 26 22 21
-578.523957 245.251271 2156.177675 84 76 73
-572.618002 259.109524 2144.766173 111 94 84
-576.093250 247.237832 2155.528964 134 125 120
-574.952251 253.728101 2152.662684 45 31 28
-574.952251 253.728101 2152.662684 45 31 28
-569.588253 261.388155 2144.128591 151 141 139
-573.432179 256.690252 2152.433499 128 111 103
-573.432179 256.690252 2152.433499 128 111 103
-574.419535 246.272291 2156.850405 97 82 75
-513.870969 -75.180221 2167.078512 82 128 125
-571.027473 260.064485 2149.554937 82 68 59
-573.311152 255.251640 2153.967685 136 122 111
-569.520115 246.113763 2159.449591 89 88 84
-562.863603 264.752601 2145.934245 168 164 165
-567.440854 249.993443 2157.496901 97 91 93
-565.151784 246.385445 2161.592865 183 175 172
-498.239862 -157.035057 2192.756142 154 164 166
-562.141259 255.716822 2158.037328 45 40 37
-559.443871 249.275650 2162.355109 203 179 177
-552.761397 250.850435 2163.691995 43 34 29
-539.810038 242.836745 2164.982026 159 161 160
-538.345423 242.203503 2168.108927 38 26 28
-538.345423 242.203503 2168.108927 38 26 28
-537.921877 244.548369 2168.145634 181 176 172
-536.424862 241.741553 2170.262609 207 175 160
-534.976684 252.536205 2166.613122 173 169 166
-534.976684 252.536205 2166.613122 173 169 166
-534.604901 255.687094 2165.921636 78 64 63
-531.363186 259.130417 2161.388205 62 52 51
-531.363186 259.130417 2161.388205 62 52 51
-534.325991 246.571903 2170.612862 43 38 35
-532.787772 258.930791 2164.857842 168 153 148
-532.906302 255.750807 2167.806005 187 170 163
-532.365922 251.117129 2168.855672 179 172 166
-527.809159 260.519284 2160.506954 78 67 63
-529.369858 259.859854 2162.717490 171 163 161
-531.477288 249.176285 2169.673124 142 138 137
-527.595941 257.507166 2167.242819 142 133 134
-529.220383 250.919328 2170.470058 53 42 40
-529.220383 250.919328 2170.470058 53 42 40
-529.022292 247.343042 2171.564020 42 38 39
-528.702759 253.895998 2169.842989 175 164 160
-525.125743 251.441381 2172.495593 176 171 168
-520.460349 242.380609 2171.794153 170 160 158
-454.831755 -68.909943 2191.942434 133 188 193
-510.969714 244.462310 2176.580197 167 163 162
-511.411546 249.653568 2176.901609 173 170 165
-510.752297 243.191232 2179.649753 72 67 64
-445.329737 -106.304615 2211.326182 137 180 187
-503.897863 255.762674 2171.118498 181 181 183
-500.020286 256.706626 2167.375438 190 188 189
-505.137208 252.649867 2175.794289 73 73 71
-505.494137 247.455269 2179.195583 165 162 157
-440.367950 -116.332644 2216.110734 164 175 177
-503.338246 249.818330 2179.637168 37 27 28
-503.713694 246.197854 2181.225727 55 53 54
-433.771780 -103.571063 2213.746271 58 126 129
-434.068347 -106.442892 2216.529131 137 181 190
-430.814830 -103.895610 2215.436810 88 143 146
-275.131428 228.178636 1921.358150 121 120 118
-419.312460 -150.747145 2223.762206 119 118 114
-467.569040 257.634664 2150.502885 181 182 186
-412.889005 -163.541800 2222.921564 25 71 69
-464.883755 258.461947 2154.789050 190 191 195
-414.971973 -149.080444 2231.725769 45 37 35
-483.660071 248.758686 2185.877062 178 174 173
-417.746978 -103.766236 2221.546455 53 110 121
-206.785568 241.385677 1853.987106 29 88 102
-417.282114 -143.832714 2234.801452 96 86 84
-478.003794 253.545069 2179.310173 191 189 190
-481.781990 240.403125 2188.280580 53 41 41
-481.781990 240.403125 2188.280580 53 41 41
-413.788599 -154.888826 2236.253919 139 143 144
-416.878611 -119.682902 2230.128910 129 172 178
-480.368669 238.841160 2189.653374 179 162 154
-479.600132 249.896595 2185.815752 165 164 162
-480.725202 244.138203 2189.600118 44 39 35
-410.743773 -157.543141 2238.444110 83 98 105
-412.445885 -73.316310 2215.141057 42 120 122
-414.255067 -125.195490 2235.364518 158 153 150
-411.217848 -106.958761 2227.232514 141 177 189
-407.170744 -155.681913 2238.839146 133 147 148
-476.002505 239.156284 2190.949043 174 155 149
-219.030210 248.370109 1880.180594 36 27 22
-476.323082 246.386594 2189.704039 186 175 173
-411.175804 -121.568423 2234.560997 171 166 172
-474.475878 248.005584 2190.109821 32 23 24
-210.379637 248.878956 1876.102312 135 125 124
-405.642740 -103.462463 2227.244824 52 108 109
-401.277115 -174.433818 2244.897564 255 255 255
-450.375331 258.905999 2164.289617 178 174 173
-469.746446 246.853480 2192.272616 196 181 178
-213.453646 249.742454 1885.263207 19 18 16
-214.850438 247.941979 1888.988984 164 145 138
-402.402801 -106.812734 2231.965888 123 172 186
-218.667048 237.075345 1901.272004 167 167 169
-250.835395 225.913998 1944.925266 177 177 177
-392.769452 -167.524921 2247.312381 24 69 75
-396.558089 -144.002926 2242.626755 109 101 98
-396.558089 -144.002926 2242.626755 109 101 98
-207.998551 249.611369 1889.079750 38 27 23
-391.140213 -162.222586 2250.533485 125 125 127
-442.206272 253.035816 2173.087957 192 178 175
-440.758375 254.470158 2171.750581 76 67 68
-200.449540 255.381753 1888.960339 54 50 47
-453.811365 228.116698 2198.649162 185 164 159
-391.908917 -117.107514 2241.617723 45 124 131
-388.658596 -159.274907 2255.127103 43 44 39
-388.658596 -159.274907 2255.127103 43 44 39
-387.900879 -157.658167 2254.602969 70 69 65
-198.948399 252.569435 1891.961107 40 36 33
-198.948399 252.569435 1891.961107 40 36 33
-453.900641 228.851667 2198.922843 185 164 159
-390.461867 -137.754937 2252.660362 129 115 102
-197.687123 258.875597 1890.145598 167 163 164
-450.705560 229.488255 2198.678821 182 165 158
-450.786182 227.103038 2199.676750 55 50 46
-386.506733 -161.096738 2256.719884 135 135 135
-385.687273 -64.991018 2223.321021 59 159 174
-455.303511 242.610023 2200.480182 55 47 44
-455.303511 242.610023 2200.480182 55 47 44
-211.729529 233.977668 1916.821299 125 124 129
-452.716396 247.644133 2196.312979 171 170 168
-449.445528 251.540883 2191.877740 85 83 84
-385.949251 -103.581122 2237.782285 43 111 114
-452.722685 238.930536 2200.753866 188 174 165
-384.585722 -66.275040 2224.768166 8 81 87
-384.585722 -66.275040 2224.768166 8 81 87
-189.085860 266.245879 1881.674223 90 89 94
-189.085860 266.245879 1881.674223 90 89 94
-448.603461 228.008657 2200.598943 168 157 153
-384.076694 -110.019157 2240.699170 76 152 165
-386.588036 -134.527677 2253.233684 29 25 24
-443.660639 251.324069 2187.778992 173 169 168
-385.344588 -124.954749 2249.092439 143 147 146
-450.603535 244.525055 2199.565522 181 177 176
-450.603535 244.525055 2199.565522 181 177 176
-300.671645 230.804445 2028.383011 171 176 180
-445.086547 231.124642 2198.855617 165 161 158
-392.495052 -144.107008 2266.550297 58 54 51
-449.505931 248.577872 2200.453148 185 177 174
-444.580394 228.442395 2201.543677 47 39 36
-383.485957 -136.848011 2256.417246 130 120 118
-191.808298 249.126584 1899.508115 132 122 113
-379.080451 -73.371207 2231.519201 9 73 82
-379.080451 -73.371207 2231.519201 9 73 82
-379.080451 -73.371207 2231.519201 9 73 82
-444.605818 226.833324 2204.543641 183 169 160
-382.386093 -130.810632 2256.783348 46 38 36
-445.055176 244.878857 2202.273575 43 28 23
-378.882147 -59.420522 2230.679809 28 82 94
-186.045322 263.929719 1893.988504 148 141 135
-206.662523 232.027044 1929.270570 172 171 169
-376.583430 -121.245886 2249.976328 122 156 165
-385.810352 -138.330927 2267.623964 79 78 73
-376.004233 -123.532429 2251.558405 79 97 85
-190.720481 240.479905 1910.097002 149 149 149
-385.454947 -141.764916 2270.675063 30 28 31
-379.252665 -131.177993 2260.184234 95 87 85
-383.085416 -135.170139 2266.738207 28 27 25
-436.979865 227.423631 2204.101785 153 149 150
-384.937378 -141.622032 2273.861091 48 38 36
-386.488139 -145.128524 2276.987783 35 29 29
-183.671008 249.310713 1903.425249 77 72 68
-304.766079 230.086862 2051.750709 64 68 69
-304.766079 230.086862 2051.750709 64 68 69
-302.377025 231.038030 2049.248413 175 175 173
-374.073524 -127.547127 2259.246133 127 126 124
-384.464785 -136.577226 2274.591486 159 150 143
-385.258289 -139.188105 2276.860697 158 150 139
-182.675531 245.469979 1908.039619 130 130 132
-182.675531 245.469979 1908.039619 130 130 132
-377.060055 -127.563492 2264.524883 38 38 38
-385.628306 -146.051659 2281.003874 59 51 48
-435.843888 230.926446 2207.094531 72 50 39
-435.138322 233.822750 2205.741823 173 160 151
-178.464279 255.160224 1900.667522 147 139 136
-293.180743 233.664247 2043.679979 108 110 107
-293.180743 233.664247 2043.679979 108 110 107
-370.911675 -127.596224 2260.552195 126 122 123
-432.763942 230.366933 2208.356013 179 160 153
-180.278123 238.805739 1914.520737 117 116 114
-181.816109 241.793140 1916.723551 67 66 64
-167.811126 259.916769 1894.655984 132 132 124
-363.384246 -103.820139 2248.881434 32 101 106
-416.501558 254.713383 2183.761811 82 63 56
-177.039316 243.652006 1911.535128 71 72 74
-428.158009 233.883783 2206.243048 158 150 148
-360.441695 -95.888452 2245.010535 59 132 149
-225.748147 237.533127 1972.673252 111 110 108
-183.894687 241.083912 1924.100896 81 75 75
-358.847175 -97.701603 2246.188682 0 67 76
-358.847175 -97.701603 2246.188682 0 67 76
-426.801192 226.322246 2211.980812 147 142 139
-378.356388 -148.098294 2288.352228 162 157 153
-422.386568 231.308421 2204.881180 56 43 35
-422.386568 231.308421 2204.881180 56 43 35
-428.886134 244.395316 2207.982445 194 189 186
-373.361641 -140.296724 2281.002115 154 143 147
-360.852369 -124.098446 2260.539860 126 140 143
-162.807053 261.052208 1897.167223 120 119 117
-372.577602 -131.658980 2277.389349 25 17 15
-330.246916 232.068951 2099.907430 168 168 168
-367.643798 -128.238983 2272.851848 155 140 135
-372.784547 -142.622770 2284.222407 164 160 161
-423.758063 227.607629 2211.467698 67 48 41
-424.908965 232.349381 2211.204499 177 161 148
-424.594543 250.163364 2204.704976 77 66 64
-369.662531 -139.244872 2282.607325 44 34 32
-160.000069 262.664942 1898.163376 22 18 17
-370.350083 -131.821439 2279.876281 152 144 141
-355.349643 -102.172121 2252.733447 24 74 81
-421.427088 238.821023 2208.340269 70 60 61
-356.226214 -125.142433 2262.994101 126 137 139
-424.092762 247.293815 2207.845952 179 169 157
-364.166100 -129.150141 2273.616640 76 65 63
-336.874655 231.998964 2114.086573 169 175 175
-422.127344 229.269717 2213.087139 157 138 134
-281.813246 238.586444 2048.719790 170 173 178
-423.039297 244.712130 2209.261149 154 148 148
-366.637551 -134.637006 2281.530712 74 69 63
-366.637551 -134.637006 2281.530712 74 69 63
-406.316038 254.272578 2188.639118 48 38 29
-206.660334 242.728995 1966.153688 146 145 141
-206.660334 242.728995 1966.153688 146 145 141
-365.406014 -135.852519 2284.013024 139 136 131
-353.877115 -131.315879 2271.814180 65 64 60
-358.343415 -134.407812 2278.692733 128 123 117
-179.246019 250.668537 1936.962104 133 138 141
-418.489405 250.304683 2210.709657 45 41 40
-359.201065 -141.897200 2285.324618 172 166 166
-363.011665 -149.230544 2293.871084 154 154 152
-166.902814 264.443665 1922.397889 35 40 43
-235.461658 242.147152 2008.258032 115 120 123
-170.661141 262.289067 1928.819069 133 132 130
-357.823651 -140.567422 2286.864853 152 152 154
-344.844279 -112.121815 2262.385627 58 110 121
-345.419930 -121.188012 2267.225823 29 52 58
-417.093339 243.672195 2217.212560 180 176 173
-170.193680 262.325403 1931.208263 137 142 138
-156.183212 267.202574 1914.681127 11 41 51
-358.834296 -141.106915 2292.234819 70 64 64
-260.672080 242.375058 2043.340210 98 108 107
-353.916025 -140.542235 2289.676032 62 54 52
-168.038820 263.340369 1933.587170 46 46 44
-168.038820 263.340369 1933.587170 46 46 44
-416.050923 252.060829 2218.003867 84 70 57
-383.570512 153.852292 2217.692356 26 82 81
-383.570512 153.852292 2217.692356 26 82 81
-331.173585 239.309570 2127.448147 135 175 177
-350.449098 -144.812717 2289.279106 128 118 117
-394.925746 258.359183 2193.186833 40 34 36
-394.925746 258.359183 2193.186833 40 34 36
-394.925746 258.359183 2193.186833 40 34 36
-367.711991 60.884193 2234.209170 46 140 152
-415.249642 250.119994 2219.729888 141 134 126
-393.510502 261.129453 2191.532000 83 79 78
-382.059771 151.498640 2218.732377 101 154 158
-415.243891 247.574535 2221.496780 57 50 44
-393.891124 256.218180 2194.568938 140 131 126
-165.490987 264.012171 1934.621617 169 169 169
-409.569739 231.121118 2221.862141 141 129 115
-409.569739 231.121118 2221.862141 141 129 115
-265.722573 241.480814 2056.540499 95 104 103
-163.936729 266.419060 1933.172076 36 47 53
-414.278003 251.982028 2220.971178 159 146 137
-350.501263 -50.018719 2259.174635 63 129 143
-110.414856 269.655220 1872.719827 255 255 255
-413.655219 255.583835 2219.099130 103 96 86
-376.775749 113.015353 2229.541459 13 67 77
-392.223422 257.895776 2194.798128 48 39 34
-410.046325 220.481971 2230.758818 116 106 97
-158.798431 268.317917 1929.793399 138 181 190
-339.474414 -190.003081 2299.777272 64 88 90
-406.355543 235.144891 2221.183641 124 109 106
-375.503448 105.353600 2234.013924 50 146 162
-166.411877 269.516195 1941.969062 169 177 179
-404.619455 230.731725 2223.997032 28 19 14
-342.427778 -139.247294 2290.552264 89 84 81
-105.310607 260.922320 1879.602473 242 255 255
-404.684992 229.007468 2226.949579 196 181 176
-373.555850 120.424986 2231.751706 83 163 174
-348.739209 -23.463290 2257.359435 57 120 125
-277.230683 242.543428 2080.606803 101 110 109
-390.788549 256.710448 2204.458215 152 138 137
-103.856259 261.508432 1882.684869 0 63 72
-103.856259 261.508432 1882.684869 0 63 72
-345.203179 -114.476812 2290.579758 27 96 111
-401.326098 231.251074 2227.202732 147 138 131
-401.584415 236.866805 2225.969264 19 11 9
-403.431478 250.427695 2224.635818 147 143 140
-337.772458 -91.783034 2276.621991 51 116 118
-386.597391 255.358822 2204.217361 158 148 139
-344.355438 -138.961203 2303.663038 123 182 190
-287.578866 243.510225 2102.423090 98 113 116
-222.801644 255.519462 2027.600948 145 150 154
-344.383604 -104.577633 2295.685884 18 48 50
-344.383604 -104.577633 2295.685884 18 48 50
-380.904777 255.772284 2203.806300 52 37 30
-251.719999 248.810659 2062.966661 73 74 76
-342.045511 -111.745018 2296.449145 25 61 73
-291.933226 243.511490 2112.297043 97 109 107
-291.933226 243.511490 2112.297043 97 109 107
-86.273109 282.949750 1871.321404 57 68 64
-339.943255 -25.292633 2267.448184 42 84 82
-97.249585 283.060162 1885.764598 62 70 73
-336.662507 -98.730962 2293.023635 10 48 51
-382.875335 193.441493 2235.050658 162 160 161
-163.135737 263.830747 1967.396173 132 155 163
-338.070294 -109.646461 2300.371134 6 47 49
-357.743927 111.021170 2240.377973 19 52 57
-330.899726 -123.917326 2300.044391 90 169 182
-391.510857 228.686515 2237.135774 29 25 24
-392.364695 251.168973 2230.692999 164 156 145
-392.364695 251.168973 2230.692999 164 156 145
-388.726943 243.455427 2230.293594 60 53 47
-390.387539 227.848788 2240.474863 184 160 148
-388.345113 259.657600 2230.715637 65 60 54
-388.218693 235.989869 2239.064936 27 23 22
-388.952132 255.311793 2233.761959 72 61 57
-305.982628 -188.807455 2306.905239 251 255 255
-305.982628 -188.807455 2306.905239 251 255 255
-305.982628 -188.807455 2306.905239 251 255 255
-65.746190 286.167207 1868.606437 249 255 255
-350.997464 127.284219 2243.164858 47 88 84
-350.997464 127.284219 2243.164858 47 88 84
-374.405628 264.017164 2217.666193 42 28 27
-64.845986 285.925781 1871.296125 17 65 77
-354.391408 138.542155 2245.521328 49 88 85
-354.391408 138.542155 2245.521328 49 88 85
-332.171053 -66.389646 2298.953070 106 177 179
-349.835751 114.449225 2250.950194 5 45 44
-336.541507 -21.128670 2287.856516 40 69 65
-360.300353 185.150505 2237.655575 143 161 161
-282.722734 251.503195 2128.193150 34 62 66
-60.776912 288.811309 1872.110809 7 64 75
-380.248781 221.826126 2246.622818 80 73 65
-261.615002 261.583914 2101.552194 132 142 144
-79.479594 296.817412 1889.575328 7 64 75
-349.436378 113.577208 2254.495262 82 131 128
-384.726300 242.479470 2244.439277 126 123 118
-384.726300 242.479470 2244.439277 126 123 118
-368.059475 258.979251 2218.492054 48 37 31
-381.523356 234.607295 2245.711911 48 38 26
-154.223996 268.263828 1987.498557 84 112 113
-345.278186 116.308352 2254.726222 16 32 29
-344.829328 109.259678 2257.283198 68 123 120
-345.532370 115.487297 2257.729301 83 114 106
-345.532370 115.487297 2257.729301 83 114 106
-344.176574 119.573228 2256.431901 90 115 109
-384.461558 252.530185 2252.624617 95 92 87
-384.461558 252.530185 2252.624617 95 92 87
-300.397307 -197.314128 2329.808793 57 53 50
-345.473863 126.961108 2256.714658 90 132 130
-382.831939 247.739857 2250.707729 53 50 43
-379.059118 250.679630 2247.421288 50 42 39
-230.565203 275.678248 2076.141312 172 190 192
-354.577417 192.810917 2243.557471 82 82 80
-354.577417 192.810917 2243.557471 82 82 80
-304.382058 -128.882290 2313.260212 57 101 100
-348.585062 155.881005 2252.289710 73 132 130
-352.198844 195.245756 2247.476495 162 161 159
-379.184189 268.792125 2248.605775 135 130 124
-345.660413 177.242946 2248.382634 61 123 118
-297.457585 -186.786135 2340.551684 127 137 129
-345.337113 168.394444 2255.202127 85 134 131
-377.028987 270.343892 2250.986908 139 135 132
-364.423674 276.043338 2237.375109 117 107 98
-379.090023 250.219064 2262.787546 113 104 97
-349.128197 200.175826 2250.816408 147 146 142
-305.574926 -57.840297 2304.457262 50 103 107
-289.896753 -215.537044 2348.355715 255 254 255
-380.001865 249.797654 2265.522174 67 53 44
-380.001865 249.797654 2265.522174 67 53 44
-261.549105 274.454304 2130.149743 113 149 149
-261.549105 274.454304 2130.149743 113 149 149
-377.347356 252.108358 2263.575638 109 100 91
-338.804859 122.602813 2273.046153 42 69 64
-290.640682 -145.387306 2326.562117 32 33 27
-373.854520 261.951943 2258.107289 146 145 143
-195.814160 268.721738 2066.295060 117 141 145
-347.688409 190.298539 2259.579989 39 64 60
-166.617348 276.087776 2034.323293 39 67 71
-86.317050 297.894498 1938.211951 107 120 113
-368.040951 235.966565 2265.943996 155 134 113
-324.541704 43.354203 2293.830003 43 120 136
-230.452970 273.585835 2103.993154 121 162 168
-291.292405 -176.202766 2345.144225 115 122 114
-368.915159 256.856492 2259.591380 31 26 23
-369.752931 255.449687 2261.523236 96 92 83
-212.119423 270.217131 2088.105055 129 162 171
-304.338148 -22.247590 2302.796663 50 103 109
-294.037891 -156.609827 2344.181209 107 115 102
-330.658418 71.702022 2294.966637 117 185 204
-357.005187 278.706516 2242.708492 145 137 126
-355.551887 282.726102 2240.326663 82 77 71
-355.551887 282.726102 2240.326663 82 77 71
-336.681753 121.711882 2284.756116 49 70 65
-305.438984 -19.529425 2308.728812 56 85 80
-358.858643 276.740883 2249.518502 164 168 167
-366.246571 271.116025 2259.446936 45 45 43
-371.565355 253.059891 2272.304075 165 158 148
-368.058479 263.906445 2264.488045 130 131 125
-284.572750 -218.009224 2364.996947 255 254 255
-353.706464 278.932959 2244.190383 164 159 156
-336.597871 124.099972 2286.887501 31 40 35
-365.026500 273.344191 2259.184150 62 60 61
-366.840346 262.649050 2265.304170 152 155 146
-365.115152 271.686759 2261.259076 158 162 161
-351.694191 280.830898 2243.882405 49 40 33
-362.709957 259.001783 2264.373737 28 29 24
-208.436220 271.702177 2096.281724 13 35 33
-369.756722 249.647629 2276.262977 60 48 34
-369.756722 249.647629 2276.262977 60 48 34
-369.850127 252.226738 2275.536393 158 152 140
-361.681740 257.192009 2265.171337 48 41 35
-273.063125 -206.849682 2354.010500 74 64 62
-362.472634 259.862106 2267.195459 89 84 78
-362.579398 262.672573 2266.531023 44 41 36
-334.214349 125.402227 2290.818617 28 51 45
-334.214349 125.402227 2290.818617 28 51 45
-347.765990 280.696850 2244.894824 164 161 154
-349.612281 206.930866 2275.741615 64 65 60
-366.528804 249.408676 2278.474079 168 159 154
-366.528804 249.408676 2278.474079 168 159 154
-217.784062 270.617987 2113.329623 74 114 116
-360.673375 268.198734 2266.704210 46 44 45
-344.093657 282.553373 2244.376685 146 142 139
-275.557820 -221.777916 2371.430618 114 109 103
-349.203946 280.156972 2252.499855 155 160 156
-361.077241 249.149439 2277.939834 22 18 15
-306.644648 277.611066 2209.901286 81 106 111
-358.075548 265.485793 2269.791704 26 22 21
-356.815579 257.262936 2272.094155 125 122 115
-334.238004 161.152392 2286.334554 110 162 160
-348.399739 279.749733 2254.486659 55 57 56
-299.839909 277.697341 2203.573817 33 63 61
-332.150319 140.903890 2293.130162 118 178 188
-340.973358 199.926518 2279.913027 120 116 113
-344.964169 281.894279 2251.643525 150 154 153
-124.263647 300.116706 2014.102151 89 105 102
-357.331302 246.591682 2279.157975 149 144 138
-355.521090 273.396064 2266.920140 167 169 168
-260.207522 273.854536 2168.341541 84 136 147
-331.713628 148.121772 2292.575192 107 172 178
-354.588808 268.535350 2268.813911 126 126 124
-355.190121 259.446794 2273.122105 26 25 23
-353.100180 276.666170 2264.459064 153 155 152
-354.599078 248.649183 2277.709140 55 51 48
-350.676513 279.467792 2262.660191 140 138 139
-189.365375 295.548912 2087.969128 122 148 145
-332.909600 281.974460 2242.584055 45 41 40
-303.872684 -19.171859 2334.458522 119 122 113
-333.263344 173.582202 2288.453086 33 54 55
-288.301339 -87.951505 2346.526908 78 75 66
-352.393459 264.252266 2272.852351 49 50 54
-300.446978 -23.424079 2335.393095 48 59 53
-336.259981 206.535018 2283.000289 129 124 120
-296.947422 -31.821487 2336.202208 104 117 99
-335.262003 193.971717 2285.932680 98 133 129
-332.255684 169.683419 2292.528779 103 141 144
-336.259981 206.535018 2283.000289 129 124 120
-334.427246 284.197835 2250.719850 167 167 169
-337.585829 207.522399 2284.442461 129 124 120
-350.871141 267.375764 2275.566378 153 153 153
-335.462096 200.472758 2286.381371 121 132 134
-349.075002 252.447226 2280.554119 61 56 52
-334.182269 198.286125 2287.823568 12 30 32
-348.338688 255.765680 2279.832008 129 126 121
-348.890548 276.763350 2272.252453 139 138 143
-345.230280 281.618707 2266.917265 141 141 143
-334.903696 212.305330 2285.076249 137 137 139
-334.903696 212.305330 2285.076249 137 137 139
-347.077439 243.322006 2285.456684 52 42 33
-279.275557 -136.832060 2368.727964 113 108 104
-337.326347 217.611904 2286.914377 143 145 140
-345.205595 239.459581 2286.331012 49 40 33
-347.711142 278.030381 2274.185259 66 68 67
-333.555237 209.634996 2287.125690 22 26 25
-342.960050 231.947317 2289.717044 105 98 90
-245.537343 273.088034 2171.822178 77 110 115
-330.187860 203.642719 2289.609188 103 129 130
-340.815367 242.896685 2285.278378 111 99 83
-335.653999 221.575683 2288.764508 28 24 23
-307.220942 282.678696 2234.643327 146 170 174
-299.440531 16.543411 2334.278703 97 113 100
-306.639135 121.489217 2300.892439 52 102 103
-342.955797 263.743030 2280.774746 157 163 161
-305.233317 124.255311 2298.881609 56 106 105
-318.831183 282.620057 2249.551672 152 162 163
-167.521109 296.442708 2088.675156 117 128 122
-289.756334 -18.667342 2341.802210 18 20 15
-286.933849 -25.999383 2343.719934 98 98 86
-341.629916 263.731150 2282.632821 25 27 26
-289.715956 -15.486648 2344.958084 88 85 78
-289.715956 -15.486648 2344.958084 88 85 78
-340.711987 267.372608 2284.313336 93 91 92
-338.735651 261.642423 2285.317393 172 173 178
-173.522816 296.702889 2102.066295 118 129 125
-304.126108 141.339859 2300.141886 0 21 24
-335.130619 253.225525 2287.382807 37 36 31
-331.963879 246.094967 2287.981773 175 176 171
-334.377578 257.167070 2286.303197 27 31 32
-339.585694 281.031425 2282.744868 77 77 75
-285.794680 -19.559542 2350.615021 92 89 82
-331.743143 254.714220 2287.852113 171 167 166
-282.443566 -20.359212 2353.904085 107 107 95
-335.445241 282.743392 2283.862869 166 167 171
-328.927379 238.794954 2295.931066 103 147 148
-302.339175 141.795512 2310.688256 40 56 53
-289.290826 50.777876 2342.454112 88 85 78
-315.257381 270.059713 2278.896243 92 132 134
-301.995659 123.386083 2328.499614 127 133 119
-278.037006 -19.668624 2364.753944 136 130 116
-287.093060 79.251721 2339.816393 84 72 50
-207.932653 -88.036274 2335.880492 169 167 146
-203.576966 -89.457421 2336.450117 89 84 55
-205.157800 -83.091413 2337.030143 82 76 60
-306.008822 259.042452 2295.702649 67 113 113
-308.724412 277.622579 2290.979009 118 151 160
-216.835491 301.818482 2189.109565 124 128 127
-216.835491 301.818482 2189.109565 124 128 127
-218.596569 302.640292 2193.847507 91 93 92
-304.566793 269.940355 2294.552677 110 132 130
-195.754099 -89.504201 2337.072905 139 151 129
-287.721803 141.527690 2332.759791 108 114 100
-301.916198 260.057696 2297.369758 76 88 86
-304.381238 279.073481 2291.817193 93 112 118
-291.387037 294.300977 2273.185649 56 65 62
-304.802169 266.314630 2299.682136 81 97 94
-288.011425 140.364639 2335.945756 25 24 19
-195.282621 -79.233902 2336.178733 78 78 54
-195.282621 -79.233902 2336.178733 78 78 54
-190.994932 -75.948144 2336.177208 155 166 150
-301.795668 282.203932 2295.897684 84 108 108
-287.079147 144.998670 2339.809797 63 63 53
-276.428733 67.652146 2362.570821 95 90 61
-183.883003 -91.772281 2340.368320 146 153 120
-189.986277 -72.297944 2338.330629 157 164 156
-294.166794 186.707385 2335.376433 109 128 124
-203.381499 -16.620866 2332.946880 87 114 105
-194.721378 -34.820484 2333.325111 147 170 160
-183.158583 -65.381889 2339.985915 117 116 88
-290.553296 204.047971 2332.544578 125 134 131
-299.078121 289.740103 2305.298942 73 87 87
-173.697614 -87.672477 2346.058755 142 148 120
-175.440433 -66.651640 2344.422650 103 101 80
32.561956 230.505282 2015.002841 249 255 251
32.561956 230.505282 2015.002841 249 255 251
-285.795429 206.415446 2338.466079 37 36 32
-280.534810 178.177282 2346.445955 98 96 84
-289.340190 243.212586 2330.364271 120 132 132
-235.088471 309.054070 2250.519426 102 111 110
6.571328 235.372694 2046.975413 31 46 51
-189.962089 16.281893 2334.898451 60 64 37
-262.320854 306.131445 2283.205442 118 116 117
-262.320854 306.131445 2283.205442 118 116 117
-289.396883 266.244654 2329.612485 134 149 156
-287.475593 249.420575 2335.464382 138 143 139
-287.475593 249.420575 2335.464382 138 143 139
-286.400975 254.980004 2333.524410 91 92 87
29.853912 260.621274 2025.631465 74 115 111
-285.929633 295.926612 2318.231548 153 154 156
30.227457 263.296739 2028.132966 39 80 82
30.227457 263.296739 2028.132966 39 80 82
-276.796913 189.292629 2356.762046 160 172 168
26.934234 259.093593 2035.999446 25 60 54
-272.930643 306.817416 2305.264512 149 151 148
27.524434 260.405180 2038.245984 105 156 160
26.698546 258.044216 2041.510560 89 147 149
26.698546 258.044216 2041.510560 89 147 149
32.431772 259.115800 2038.051348 28 72 81
33.251065 262.471299 2038.744109 90 155 159
30.098437 255.706326 2045.192064 34 75 79
-288.182062 304.192125 2327.835297 148 152 151
-288.182062 304.192125 2327.835297 148 152 151
22.098811 244.916670 2061.666694 89 126 132
-278.153096 234.473206 2353.980608 29 30 24
-285.149969 307.214068 2332.342388 162 161 159
-285.149969 307.214068 2332.342388 162 161 159
-170.463718 34.926000 2343.524222 97 103 67
-283.075995 277.507746 2344.436054 126 128 127
23.229324 233.722603 2073.707720 107 127 136
26.272136 243.011232 2067.815881 10 30 37
27.784405 242.187388 2070.105108 73 117 126
-271.003122 240.747336 2354.699040 112 124 122
27.122575 227.042454 2079.407702 89 112 120
-92.690250 -75.765879 2319.726074 46 46 48
25.984232 231.382875 2080.578524 20 31 35
29.492179 240.805792 2074.758942 83 144 163
28.931900 225.546079 2083.219697 49 96 106
-173.390410 76.767193 2339.846278 72 110 97
-173.390410 76.767193 2339.846278 72 110 97
-83.264222 -92.163272 2329.580825 97 138 140
-277.787856 313.616260 2336.131851 139 137 138
30.706245 234.020599 2082.405856 87 125 138
30.706245 234.020599 2082.405856 87 125 138
35.265347 213.680541 2088.994060 23 32 37
43.592821 250.995176 2065.479496 247 255 255
33.081774 212.483508 2093.463130 17 26 31
36.651585 240.330050 2077.801344 20 63 79
-166.921835 74.060820 2342.672860 68 88 76
33.054852 230.686022 2085.696658 33 41 52
32.647620 227.013311 2086.907614 104 151 169
33.799884 219.348053 2091.440558 9 37 49
-161.190656 63.184137 2345.622166 110 113 84
-160.502426 67.141206 2346.804611 145 158 140
-276.745329 311.423769 2353.205829 192 190 191
-16.234268 -204.153286 2342.005988 42 87 90
-75.329633 -78.004568 2340.755141 105 139 138
46.550098 232.657729 2094.065798 18 25 31
39.968498 210.851075 2113.828557 104 148 157
43.267949 216.218448 2109.629023 29 51 64
-53.233914 -126.744860 2353.680144 43 92 107
-23.698511 -45.524119 2285.828947 255 255 253
-148.723049 111.057696 2341.852898 55 57 44
-43.542040 -139.246533 2359.397282 102 143 165
47.316055 213.662011 2116.686655 17 32 37
46.062011 210.611602 2119.780242 70 123 129
58.656553 215.902651 2106.838441 148 185 191
42.142914 199.988344 2131.501096 52 96 109
45.676003 203.149972 2129.548224 93 139 152
45.676003 203.149972 2129.548224 93 139 152
-12.885226 -68.234929 2306.306696 45 75 86
-21.853866 -38.209757 2301.259881 27 27 35
59.049678 209.104334 2124.904794 101 158 165
54.657826 207.193054 2129.783722 94 143 147
-32.017592 -33.642302 2320.171986 76 106 108
68.029948 211.220910 2118.245177 105 163 175
68.029948 211.220910 2118.245177 105 163 175
65.580585 204.845184 2129.378286 32 39 49
61.321207 190.898929 2140.360471 90 157 173
-33.461126 -105.645843 2362.496803 21 46 51
-17.210036 -14.497214 2307.146854 101 118 126
-17.210036 -14.497214 2307.146854 101 118 126
-20.734705 -140.444097 2370.083594 109 171 182
64.828560 189.891063 2142.457357 99 171 186
-20.839975 -136.451818 2370.475100 23 40 47
-34.704992 -89.409327 2363.246735 115 155 155
-29.457363 -101.729621 2364.103520 98 160 159
67.166357 197.549555 2140.126326 9 64 84
-24.765401 -107.701393 2366.429147 13 23 33
-14.655384 -37.291271 2324.682450 20 21 25
-17.951972 -23.276844 2321.627974 17 18 22
71.960973 177.307844 2153.078318 33 93 103
-20.005089 -107.184212 2368.928754 6 33 44
-11.267182 -136.143589 2375.133068 50 70 79
-130.959686 244.709212 2306.645494 28 66 67
-147.572034 213.161680 2337.137846 77 138 156
-5.463822 -34.641884 2325.934292 73 92 96
75.981454 171.246016 2157.270043 5 49 50
32.323691 23.398220 2265.190298 82 93 97
81.308604 199.970621 2140.236101 16 38 49
-130.118798 238.894096 2314.066088 98 156 158
-9.523265 -117.700276 2374.042394 123 180 189
-142.329585 209.705230 2341.152325 125 194 189
81.413698 169.992673 2160.996784 79 131 144
-20.093859 -82.002655 2368.845867 52 72 71
46.208435 28.095877 2258.361728 16 21 25
-130.545517 231.409939 2321.997533 35 58 66
84.627914 200.514501 2145.077420 90 155 173
84.627914 200.514501 2145.077420 90 155 173
-11.408874 -103.662757 2372.266017 108 150 149
48.253646 31.599322 2257.165219 102 126 130
-134.260542 220.138980 2332.272748 45 74 80
-17.983403 -78.601861 2368.186873 114 134 133
86.508388 165.373111 2162.088402 21 35 44
-6.488648 -118.170209 2376.921701 142 176 175
47.789442 27.692350 2261.825286 91 110 114
85.310209 175.889787 2159.745065 26 58 69
85.310209 175.889787 2159.745065 26 58 69
-9.591703 -104.502529 2375.146768 38 42 43
6.444525 -16.052417 2319.871747 127 158 163
6.444525 -16.052417 2319.871747 127 158 163
-3.765115 -120.919892 2378.422286 24 37 43
-3.187886 -32.181532 2337.619225 86 105 111
49.018924 27.953796 2263.626572 88 112 114
45.766730 26.981623 2267.252166 97 115 117
15.772983 -15.632237 2314.710186 253 252 250
15.772983 -15.632237 2314.710186 253 252 250
88.516434 187.190147 2155.862048 31 90 98
-4.500801 -105.235054 2378.292132 42 62 71
10.614834 -18.712341 2325.186129 68 117 122
93.011191 165.369937 2168.878842 22 27 31
93.011191 165.369937 2168.878842 22 27 31
